# .PCD v0.7 - Point Cloud Data file format
VERSION 0.7
FIELDS x y z
SIZE 4 4 4
TYPE F F F
COUNT 1 1 1
WIDTH 1789
HEIGHT 1
VIEWPOINT 0 0 0 1 0 0 0
POINTS 1789
DATA ascii
53.41950 -7.97884 4.73094
53.45301 -3.67280 4.70731
53.33368 -3.38910 4.72388
53.41120 -3.02701 4.73407
53.48490 1.30165 4.73435
53.36366 1.54087 4.71568
53.39938 1.95190 4.69823
53.50791 6.26326 4.84418
53.36849 6.51854 4.70956
53.39626 6.95945 4.70896
53.53745 11.22323 4.60988
53.36646 11.49916 4.74683
53.40099 11.97007 4.70930
53.39354 16.43111 4.72455
53.36548 16.87627 4.72974
53.52014 17.12371 4.66140
53.41587 21.43207 4.73969
53.35826 21.81636 4.71236
53.50766 22.07508 4.71415
53.32213 26.30174 4.76341
53.75958 -23.29555 4.73289
53.73986 -18.75515 4.70611
53.76791 -17.82096 4.69623
53.78534 -13.75926 4.69922
53.80996 -12.82202 4.72446
53.77412 -8.75248 4.70467
53.78531 -7.83992 4.71418
53.75650 -3.76343 4.73498
53.77023 -2.83635 4.72436
53.77799 1.23011 4.75237
53.77670 2.16004 4.70894
53.83200 2.25719 4.56040
53.77184 6.22100 4.74513
53.79311 7.16763 4.75389
53.83499 7.21452 4.66720
53.77568 11.21581 4.74979
53.80547 11.27259 4.76059
53.78829 12.13427 4.71672
53.75699 12.17698 4.70004
53.80581 16.18196 4.67930
53.74086 16.23471 4.75354
53.78319 17.16776 4.72686
53.75605 21.23454 4.71248
53.76917 22.17056 4.73203
53.76756 26.29929 4.74464
54.21621 -23.29950 4.74261
54.17301 -18.62018 4.72491
54.27626 -18.18368 4.72831
54.09948 -17.90961 4.71097
54.16783 -13.61921 4.75096
54.26151 -13.28058 4.69031
54.12779 -12.94544 4.72873
54.09799 -8.65218 4.72097
54.25809 -8.33172 4.71153
54.13186 -7.94372 4.72771
54.10317 -3.66788 4.73137
54.27325 -3.40277 4.70923
54.18507 -3.00145 4.70845
54.10084 1.31390 4.74045
54.26210 1.56858 4.73778
54.17661 2.00166 4.70373
54.05139 6.26074 4.66743
54.23082 6.52840 4.71341
54.18644 6.96139 4.69719
54.20174 11.48969 4.69465
54.16975 11.96715 4.70413
54.00634 12.16195 4.69741
54.15836 16.41563 4.73531
54.20885 16.88804 4.71322
54.07008 17.13976 4.70075
54.16431 21.39635 4.71395
54.25378 21.83794 4.74605
54.07297 22.13529 4.73284
54.19041 26.30949 4.73660
54.67879 -23.30041 4.73438
54.66593 26.30394 4.74494
55.15073 -23.29957 4.74921
55.12714 26.30666 4.75195
55.57853 -23.29892 4.74092
55.57885 26.30675 4.73479
56.05539 -23.30116 4.71739
56.02871 26.30489 4.72205
56.45066 -23.29738 4.73307
56.48485 26.29977 4.75360
56.91580 -23.29953 4.70283
56.93508 26.30420 4.71952
57.38564 -23.30103 4.70286
57.39200 26.29960 4.73336
57.80272 -23.30044 4.72351
57.84931 26.29664 4.72264
58.26253 -23.29542 4.72946
58.40865 -18.54656 4.69314
58.33471 -18.21706 4.68817
58.45335 -17.94781 4.76000
58.41445 -13.58465 4.73441
58.32568 -13.32123 4.72768
58.40345 -12.97443 4.71553
58.42633 -8.62399 4.68603
58.32993 -8.33579 4.73888
58.40255 -7.99408 4.69165
58.47954 -3.65160 4.74693
58.33901 -3.38529 4.70604
58.40031 -3.02781 4.70510
58.45788 1.31619 4.73372
58.35530 1.58916 4.70842
58.38554 1.94786 4.68653
58.36287 6.53605 4.74536
58.36412 6.92356 4.70881
58.49371 11.24622 4.55576
58.34625 11.52838 4.73231
58.36947 11.91400 4.74264
58.38300 16.44650 4.73022
58.35088 16.84352 4.72668
58.37450 21.46718 4.72254
58.35707 21.81550 4.70776
58.49922 22.12636 4.77089
58.28754 26.30435 4.71472
58.70951 -23.30232 4.72668
58.71303 -18.75526 4.71638
58.72183 -17.82030 4.72393
58.69805 -13.73942 4.70216
58.71333 -12.82530 4.69207
58.71421 -8.73411 4.72185
58.71515 -7.83173 4.72219
58.72013 -3.74976 4.72763
58.70432 -2.84408 4.69955
58.73487 1.25129 4.72213
58.73192 2.17830 4.75352
58.74227 6.23400 4.71832
58.53550 6.32815 4.68248
58.66862 7.15199 4.66828
58.78233 7.22157 4.76921
58.73726 11.21919 4.74553
58.64700 11.29060 4.63875
58.60186 12.13576 4.68576
58.78274 12.18031 4.75055
58.71967 16.18025 4.70486
58.70672 16.25697 4.73934
58.54666 17.08182 4.64012
58.76278 17.17291 4.71905
58.69184 21.25295 4.70750
58.71701 22.15230 4.71152
58.70508 26.30063 4.73977
59.17923 -23.29862 4.73552
59.16028 -18.63342 4.74530
59.29071 -18.20584 4.74128
59.09388 -17.88558 4.72815
59.09457 -13.66522 4.72622
59.27615 -13.30985 4.70829
59.11097 -12.92429 4.71656
59.10316 -8.66310 4.70995
59.26243 -8.31884 4.70649
59.12920 -7.92491 4.74614
59.07315 -3.69034 4.74195
59.27318 -3.38349 4.73124
59.17348 -2.97049 4.72919
59.07468 1.29495 4.75832
59.26252 1.55925 4.71968
59.17339 2.01135 4.72503
59.03313 6.27479 4.69910
59.22774 6.51660 4.69837
59.15524 7.00931 4.73088
59.16415 11.44748 4.70371
59.16548 11.95374 4.72290
59.05794 12.15301 4.83255
59.13700 16.38886 4.72690
59.21019 16.90918 4.71007
59.00127 17.14335 4.75185
59.14664 21.36771 4.70752
59.27343 21.81993 4.72305
59.06472 22.12138 4.72735
59.16754 26.30379 4.73483
59.62234 -23.29235 4.74516
59.61582 26.30734 4.75031
60.06100 -23.29846 4.71945
60.08400 26.30246 4.74945
60.53957 -23.28901 4.71691
60.52774 26.31176 4.72197
60.96071 -23.29657 4.70639
60.97432 26.30222 4.71786
61.41381 -23.29897 4.75275
61.44711 26.31321 4.74087
61.89931 -23.29829 4.73119
61.87845 26.30485 4.73524
62.32849 -23.29549 4.72885
62.34333 26.30914 4.74196
62.76973 -23.28995 4.73450
62.76437 26.30665 4.71773
63.24525 -23.29043 4.73011
63.22146 26.31306 4.71527
63.75136 -23.19584 4.71954
63.82241 -22.73597 4.73004
63.81370 -22.25665 4.70950
63.81474 -21.79809 4.71305
63.81967 -21.37436 4.73163
63.81857 -20.93999 4.71063
63.81860 -20.45801 4.73778
63.81787 -20.01733 4.70508
63.81986 -19.56154 4.71788
63.81368 -19.10898 4.71439
63.80608 -18.69460 4.71877
63.81600 -18.22271 4.71235
63.81375 -17.78099 4.70365
63.81821 -17.34269 4.70713
63.82101 -16.87477 4.71562
63.81777 -16.42466 4.74380
63.81048 -15.98094 4.71293
63.81083 -15.52666 4.70962
63.81281 -15.10279 4.70661
63.80656 -14.63053 4.73342
63.80828 -14.15954 4.69453
63.80414 -13.71545 4.70868
63.80695 -13.25017 4.70348
63.79687 -12.83166 4.70137
63.80412 -12.37753 4.71556
63.80439 -11.94386 4.71113
63.79833 -11.46026 4.72223
63.80364 -11.01810 4.72116
63.80299 -10.57691 4.71544
63.78954 -10.13196 4.69257
63.79452 -9.69539 4.70745
63.79085 -9.23536 4.71548
63.79295 -8.79723 4.70904
63.80182 -8.33736 4.70583
63.79940 -7.89689 4.71895
63.79865 -7.42855 4.72522
63.80755 -6.97129 4.73995
63.80142 -6.52386 4.71881
63.79542 -6.09336 4.71978
63.79998 -5.62788 4.73482
63.80421 -5.14955 4.73903
63.80344 -4.71183 4.75570
63.80724 -4.27278 4.73635
63.80733 -3.85200 4.70729
63.80926 -3.37954 4.73387
63.80599 -2.92247 4.72893
63.80662 -2.46752 4.72549
63.80912 -2.04895 4.71306
63.80835 -1.60144 4.69244
63.81109 -1.16076 4.69757
63.81120 -0.69421 4.72334
63.81359 -0.24181 4.69333
63.81195 0.24625 4.70563
63.80999 0.69352 4.71843
63.80522 1.12665 4.71189
63.81825 1.59025 4.71821
63.80310 2.04035 4.71377
63.81101 2.49404 4.74636
63.80464 2.93333 4.72960
63.79945 3.37462 4.69431
63.80233 3.81667 4.70912
63.80504 4.30048 4.72850
63.80489 4.75179 4.70873
63.80864 5.18030 4.71983
63.80885 5.59113 4.74979
63.80059 6.06392 4.72472
63.80405 6.52849 4.72889
63.79753 6.95709 4.73309
63.80407 7.42205 4.71501
63.80170 7.86314 4.73420
63.80618 8.30502 4.70045
63.79421 8.76629 4.72992
63.80256 9.20533 4.72340
63.79224 9.68853 4.70780
63.79492 10.12543 4.71234
63.79982 10.56677 4.74537
63.79386 11.01214 4.74451
63.80199 11.49484 4.73618
63.80091 11.92345 4.73236
63.79794 12.36050 4.70209
63.79518 12.81407 4.72926
63.80427 13.27419 4.72315
63.80096 13.73408 4.73723
63.79661 14.19139 4.73045
63.80381 14.64755 4.72407
63.79806 15.07649 4.73413
63.79372 15.52618 4.72005
63.79129 15.96256 4.78554
63.79859 16.43091 4.73248
63.79606 16.87773 4.73697
63.80009 17.31172 4.72506
63.79814 17.80987 4.74323
63.80458 18.24963 4.69379
63.79491 18.66219 4.75691
63.80621 19.12110 4.72802
63.80370 19.56521 4.73873
63.80902 20.00293 4.73522
63.80160 20.47426 4.70964
63.80791 20.92514 4.74973
63.81052 21.36298 4.69766
63.80046 21.82376 4.71499
63.79894 22.25428 4.70753
63.80633 22.72323 4.71574
63.80206 23.20159 4.71900
63.80944 23.64119 4.72311
63.81356 24.07589 4.71880
63.81020 24.53569 4.72309
63.81552 24.96868 4.70584
63.81525 25.41028 4.71882
63.81644 25.88772 4.71819
63.69050 26.27307 4.69943
-63.81180 -25.69848 4.99417
-63.77072 -25.35823 4.96842
-63.77599 -25.02642 4.97505
-63.78235 -24.40845 4.98603
-63.77959 -24.09603 4.98995
-63.78084 -23.55472 4.98464
-63.77957 -23.13655 4.98058
-63.77919 -22.27458 4.98678
-63.79169 -21.82491 4.96155
-63.79940 -21.35451 4.96389
-63.81275 -20.86709 4.95768
-63.80917 -20.42210 4.96078
-63.82405 -20.07247 4.95513
-63.80611 -19.58057 4.95135
-63.82422 -19.08716 4.98281
-63.80493 -18.65077 4.97036
-63.79903 -18.21879 4.97346
-63.77707 -17.80205 4.96198
-63.79645 -17.30920 4.97451
-63.80700 -16.87447 4.97154
-63.78104 -16.44618 4.98024
-63.81583 -15.88490 4.96952
-63.80496 -15.55750 4.97046
-63.83897 -15.16656 4.97779
-63.81423 -14.20154 4.96862
-63.81179 -13.62414 4.99017
-63.82515 -13.21786 4.98230
-63.83963 -12.79827 4.96159
-63.82486 -11.33468 4.98499
-63.84948 -10.98778 4.97676
-63.83343 -10.59546 4.97136
-63.84444 -10.13393 4.97700
-63.81711 -9.54378 4.97307
-63.82325 -9.19060 4.98799
-63.84014 -8.80300 4.99392
-63.81201 -8.34163 4.97171
-63.83919 -7.71770 4.97355
-63.83739 -7.41348 4.95489
-63.83172 -7.11550 4.96809
-63.80389 -6.36776 4.96627
-63.80002 -5.63513 4.99029
-63.77233 -3.56440 4.96562
-63.76229 -2.29526 4.98064
-63.75334 -1.83618 4.99473
-63.79191 -1.15366 4.99787
-63.78481 -0.66189 4.98159
-63.78083 -0.19235 4.98394
-63.78244 0.18258 4.98766
-63.79400 0.68003 4.98203
-63.78639 1.13656 4.97395
-63.79410 1.62040 4.96890
-63.78723 2.01894 4.96115
-63.78952 2.41475 4.95856
-63.82570 2.78822 4.96771
-63.78629 3.39699 4.95774
-63.77802 3.86295 4.96515
-63.82220 4.33288 4.95023
-63.80486 4.59570 4.95882
-63.80942 5.21346 4.95433
-63.78022 5.68548 4.99613
-63.80341 6.18011 4.96888
-63.78448 6.65403 4.99864
-63.79981 7.06419 4.96942
-63.83916 7.82934 4.98210
-63.75058 8.18801 4.95438
-63.78119 8.89522 4.95847
-63.80717 9.37301 4.97839
-63.83710 9.84630 4.99143
-63.78067 10.08991 4.99115
-63.82105 11.19815 4.98041
-63.78428 11.45707 4.95933
-63.83329 11.87627 4.96712
-63.80901 12.32108 4.97588
-63.82046 13.22829 4.95455
-63.81004 13.76267 4.97858
-63.78670 14.13696 4.97913
-63.82145 14.68174 4.97062
-63.84050 15.29963 4.95889
-63.82018 15.51417 4.98645
-63.79640 15.84659 4.98796
-63.82164 16.97224 4.98569
-63.82949 17.19400 4.98360
-63.83934 17.58947 4.96829
-63.82451 18.37968 4.95578
-63.85579 18.58536 4.97512
-63.82950 19.17344 4.97501
-63.83370 20.16816 4.98003
-63.84557 20.45991 4.97924
-63.85240 20.92014 4.97850
-63.84198 21.39613 4.98722
-63.83927 21.66609 4.99702
-63.83784 22.29639 4.96706
-63.83644 22.66915 4.96336
-63.83711 23.24672 4.96857
-63.65658 23.43257 4.97893
-63.22657 -26.19200 4.97423
-63.26837 23.40139 4.95987
-62.77997 -26.19824 4.97877
-62.78918 23.44107 4.98261
-62.32845 23.39824 4.95380
-62.14275 23.40068 4.95328
-61.92411 -26.13554 4.96207
-61.77196 23.39738 4.95235
-62.05844 23.44175 4.99274
-61.26887 -26.17400 4.98220
-61.54157 23.42820 4.98587
-61.14175 -26.19200 4.99533
-61.18606 23.45291 4.97187
-60.71680 -26.18891 4.96585
-60.49850 23.45938 4.96846
-60.18425 -26.18775 4.98895
-59.99754 23.43249 4.97932
-59.45278 -26.16559 4.99096
-59.54133 23.45895 4.98954
-59.21399 -21.80126 4.97544
-59.18133 -21.33004 4.97061
-59.22688 -16.80663 4.95900
-59.24878 -16.45185 4.98174
-59.02227 -16.16154 4.96692
-59.18609 -11.88387 4.97671
-59.31885 -11.55545 4.96998
-59.22994 -11.24320 4.97408
-59.00498 -7.00214 4.99738
-59.31804 -6.66027 4.98513
-59.10385 -1.98974 4.97758
-59.10913 -1.23886 4.98822
-59.09695 3.07032 4.98835
-59.27797 3.31260 4.98096
-59.11870 3.76496 4.99956
-59.07395 8.02027 4.99529
-59.29110 8.37477 4.96545
-59.14657 8.77702 4.96580
-59.05992 12.97698 4.98479
-59.18774 13.10453 4.97611
-59.19111 13.70116 4.97518
-59.21157 18.18863 4.98527
-58.91854 -26.20157 4.97586
-58.51454 -22.00135 4.98115
-58.94052 -21.11118 4.99635
-58.70814 -17.01310 4.96625
-58.54449 -12.01497 4.97459
-58.73076 -11.08863 4.98157
-58.73129 -6.98803 4.95980
-58.73894 -6.12184 4.99578
-58.50963 -1.98492 4.98293
-58.76324 -1.09787 4.97411
-58.56134 3.06756 4.97807
-58.78280 3.88789 4.97631
-58.69910 7.95838 4.98781
-58.72634 12.96485 4.98582
-58.78428 13.92581 4.96111
-58.66126 18.86935 4.98620
-58.81013 18.96921 4.98506
-58.68435 23.46826 4.95485
-58.14970 -26.19428 4.95637
-58.30400 -21.70793 4.98858
-58.28729 -16.67869 4.98593
-58.30318 -16.43373 4.96454
-58.46136 -11.85248 4.97336
-58.37830 -11.50447 4.95769
-58.40147 -6.76976 4.99886
-58.38295 -1.86187 4.98552
-58.32606 -1.48570 4.98298
-58.46779 -1.23629 4.99560
-58.30455 3.36098 4.96912
-58.36243 3.67118 4.97185
-58.29153 8.35314 4.96288
-58.37856 13.21576 4.96484
-58.38750 18.31900 4.96810
-58.40556 18.70231 4.98861
-58.40899 23.43285 4.95412
-57.88423 -26.19613 4.95635
-57.84073 23.41758 4.97278
-57.41344 -26.18922 4.95633
-56.94351 -26.19411 4.95348
-56.95123 23.47280 4.98463
-56.48253 -26.18513 4.95676
-56.46801 23.39761 4.97056
-56.47178 23.47200 4.96161
-56.00777 -26.18843 4.96048
-56.05678 23.47292 4.99260
-55.64291 -26.18720 4.95770
-55.45728 23.48365 4.98568
-55.16882 -26.18596 4.95837
-55.13254 23.44870 4.98431
-54.69338 -26.20263 4.96567
-54.68867 23.43826 4.98457
-54.21285 -26.18376 4.96645
-54.18639 -21.82810 4.96849
-54.22137 -21.41385 4.97562
-54.01346 -21.05636 4.95331
-54.01092 -16.97030 4.98638
-54.31069 -11.53133 4.96212
-54.21332 -6.86824 4.97560
-54.25822 -6.45642 4.98061
-54.06140 -6.18984 4.97517
-54.15206 -1.91144 4.95977
-54.31844 -1.49807 4.98926
-54.19981 -1.30965 4.97683
-54.06055 3.01445 4.95003
-54.25682 3.32480 4.96790
-54.14389 3.75154 4.95678
-54.11396 8.11773 4.99286
-54.12347 8.78424 4.98086
-54.29302 13.37030 4.97171
-54.10667 13.83142 4.99386
-54.23927 18.64891 4.97989
-54.14460 23.47556 4.97875
-53.67374 -26.18041 4.97183
-53.76586 -22.06368 4.99380
-53.63746 -22.03369 4.97348
-53.80790 -17.02853 4.97605
-53.56612 -11.96830 4.99370
-53.97414 -7.01540 4.97289
-53.82113 -6.09412 4.96875
-53.63080 -2.00603 4.96550
-53.76989 -1.11562 4.98649
-53.96816 2.95041 4.99531
-53.93297 7.95445 4.99387
-53.77532 8.88085 4.96407
-53.66544 12.95515 4.97719
-53.90092 13.90539 4.97567
-53.92580 17.96246 4.96923
-53.83347 18.94956 4.99001
-53.79032 23.47095 4.97376
-53.34076 -26.16517 4.98454
-53.30828 -21.71507 4.98277
-53.31546 -21.38705 4.97705
-53.39129 -11.77053 4.97514
-53.42968 -6.84917 4.96770
-53.31520 -6.37684 4.97264
-53.49127 -6.21410 4.98415
-53.45408 -1.93183 4.97792
-53.31900 -1.51703 4.99167
-53.47422 -1.24227 4.96755
-53.51041 3.02772 4.97954
-53.31354 3.32049 4.96872
-53.48413 8.04662 4.98290
-53.29126 8.34292 4.99079
-53.48513 8.75817 4.96625
-53.40444 13.65711 4.97233
-53.39070 18.29946 4.96621
-53.46958 18.78150 4.97379
-53.39551 23.43915 4.96876
-52.90507 -26.19575 4.96353
-53.00917 23.41151 4.99542
-52.44876 -26.17473 4.98525
-52.64808 23.43436 4.98481
-51.97617 23.47112 4.96267
-51.56334 -26.18055 4.99889
-51.46720 23.44380 4.96370
-51.03733 -26.18953 4.96642
-50.67728 -26.18744 4.98983
-50.61333 23.42728 4.98536
-50.10347 23.44588 4.98773
-49.71499 -26.15899 4.98779
-49.67648 23.42831 4.96418
-49.11408 -26.18251 4.96376
-49.13945 -21.88158 4.95203
-49.22495 -21.24266 4.98077
-49.29681 -16.72571 4.99078
-49.30694 -16.43234 4.98023
-49.06282 -16.16768 4.96587
-49.30400 -11.47304 4.98640
-49.18261 -6.89749 4.97208
-49.32426 -6.61802 4.98991
-49.11117 -6.20910 4.97196
-49.07412 -1.98324 4.98485
-49.25263 -1.50821 4.98170
-49.09602 -1.20238 4.97480
-49.09918 3.06183 4.97895
-49.24335 8.30135 4.97678
-49.23090 8.64687 4.97486
-49.29827 13.34430 4.97341
-49.12027 13.84546 4.95745
-49.30589 18.31737 4.97117
-49.24598 18.67631 4.96625
-49.41919 23.38733 4.96116
-48.78500 -26.19022 4.98618
-48.94736 -22.01427 4.96678
-48.89179 -21.05462 4.96048
-49.03400 -16.99378 4.99959
-48.71707 -16.08481 4.98122
-48.82454 -11.06743 4.96557
-48.84149 -7.06353 4.97929
-48.69290 -2.00524 4.98506
-48.79737 -1.10977 4.97975
-48.82354 2.97639 4.98513
-48.68929 3.96438 4.97655
-48.84746 7.97548 4.96312
-48.88358 8.94085 4.97763
-48.74088 12.92182 4.97589
-48.82023 17.96301 4.96627
-48.90288 18.02385 4.98597
-49.02210 18.90153 4.99201
-48.96828 23.48180 4.98092
-48.41154 -21.90130 4.99667
-48.28679 -21.47926 4.97815
-48.54832 -21.09885 4.97720
-48.52597 -16.99809 4.96311
-48.35661 -16.40654 4.98932
-48.52531 -16.13710 4.98730
-48.36640 -11.28660 4.98437
-48.57341 -11.13928 4.96440
-48.53842 -6.93794 4.96970
-48.35546 -6.53181 4.97866
-48.50536 -6.12020 4.96884
-48.47345 -1.89054 4.96606
-48.31462 -1.56418 4.95833
-48.44131 -1.23717 4.97326
-48.29505 8.48331 4.96944
-48.46408 8.79372 4.97749
-48.34800 13.40556 4.99597
-48.42395 13.64215 4.96390
-48.33965 18.29932 4.97845
-48.43931 23.47102 4.95754
-47.90933 -26.19317 4.99435
-47.90961 23.42494 4.99204
-47.42193 -26.15237 4.95072
-47.29792 23.43728 4.96903
-46.96085 23.44843 4.96643
-46.52918 23.46100 4.97099
-46.15927 23.46275 4.97975
-45.63922 23.44633 4.97042
-45.16419 23.44124 4.98577
-44.78259 23.42318 4.98330
-44.37534 -26.14627 4.96224
-44.20794 -21.82657 4.98542
-44.20455 -21.38773 4.96533
-44.20299 -16.79668 4.98465
-44.27488 -16.40466 4.98834
-44.27505 -11.80001 4.99499
-44.31873 -11.54148 4.99010
-44.18672 -11.21156 4.95432
-44.12920 -6.91837 4.96336
-44.31375 -6.63475 4.97140
-44.22781 -6.27712 4.95457
-44.16935 -1.82889 4.98117
-44.23913 -1.65224 4.95490
-44.23028 3.33141 4.97438
-44.19990 8.26463 4.97755
-44.25612 8.59532 4.97486
-44.15959 13.16773 4.98087
-44.16235 13.79158 4.98944
-44.19755 18.14106 4.97300
-44.33292 23.59673 4.96804
-44.21894 24.06727 4.97368
-44.16240 24.36116 4.99488
-44.18969 25.00533 4.97566
-44.20855 25.46916 4.98110
-44.21307 25.85384 4.98404
-44.20858 26.26825 4.96878
-44.21565 26.55655 4.96577
-44.22612 27.86104 4.98279
-44.22062 28.16709 4.97183
-44.22002 28.63564 4.97726
-44.23558 29.03896 4.98566
-44.23560 29.41661 4.96438
-44.22988 30.04970 4.99577
-44.22427 30.37907 4.97359
-44.23505 31.03238 4.95347
-44.23220 31.29775 4.99083
-44.19909 31.74384 4.97964
-44.24092 31.99455 4.98616
-44.20656 32.71729 4.97773
-44.24295 33.07452 4.98296
-44.19923 33.64993 4.96958
-44.21923 33.97524 4.96517
-44.20433 34.44207 4.98971
-44.20792 34.81772 4.96928
-44.24441 35.41699 4.97381
-44.02213 -26.15454 4.95716
-43.87006 -22.00987 4.98132
-43.72360 -21.04817 4.98225
-43.88339 -16.99421 4.97208
-43.85884 -16.02253 4.98677
-43.84063 -11.07428 4.98437
-44.04837 -6.99790 4.99616
-43.70820 -6.04098 4.98787
-43.89561 -1.99701 4.97099
-43.83280 -1.10016 4.97744
-43.80395 2.95838 4.97273
-43.91343 3.94970 4.98153
-43.99413 8.00935 4.96098
-43.88768 8.91984 4.97055
-43.83744 13.00361 4.98525
-44.05626 13.06237 4.99440
-43.80195 13.90500 4.98232
-43.74711 13.97438 4.99612
-43.77077 17.95576 4.97053
-43.84090 18.87054 4.96536
-43.86209 18.94525 4.97553
-43.77645 35.84975 4.97621
-43.61241 -26.18354 4.97957
-43.42561 -21.90447 4.96892
-43.49626 -21.13970 4.95558
-43.47829 -16.83385 4.96878
-43.42143 -16.33388 4.98750
-43.59274 -16.13162 4.97871
-43.40441 -11.81714 4.97363
-43.51460 -11.09268 4.97651
-43.60196 -6.95252 4.95321
-43.34614 -6.65012 4.96785
-43.47942 -6.22185 4.96707
-43.49774 -1.94811 4.97738
-43.30837 -1.58142 4.96004
-43.43447 -1.19050 4.97758
-43.43833 3.08119 4.96848
-43.28030 3.37090 4.97507
-43.64610 7.97582 4.96026
-43.33767 8.42669 4.95794
-43.41651 13.27291 4.98165
-43.48085 13.79868 4.98372
-43.62412 17.98407 4.95435
-43.33951 18.28868 4.97749
-43.45139 18.73449 4.95533
-43.48643 35.85113 4.99118
-42.82320 -26.16890 4.95071
-42.85892 35.85231 4.95058
-42.39416 -26.16084 4.97221
-42.51107 35.85095 4.96094
-42.10929 -26.17144 4.97605
-42.18138 35.85146 4.98578
-41.67636 -26.12851 4.97192
-41.42808 35.85134 4.95686
-41.36748 -26.17265 4.98243
-41.06003 35.84842 4.98729
-40.78780 -26.14814 4.95566
-40.52164 35.85477 4.96637
-40.24336 -26.15569 4.96432
-40.15257 23.45692 4.96737
-40.20526 24.05109 4.96641
-40.20573 24.33217 4.95179
-40.20569 24.98998 4.96708
-40.21527 25.33234 4.96502
-40.21854 25.92318 4.97461
-40.22231 26.41499 4.97388
-40.19147 26.80948 4.95716
-40.21678 27.35150 4.98554
-40.20376 27.75796 4.97513
-40.21376 28.11886 4.96632
-40.21263 28.63981 4.97788
-40.21451 29.13539 4.99495
-40.21360 29.45328 4.98435
-40.19447 29.91123 4.95922
-40.20937 30.53913 4.98382
-40.19643 30.91144 4.98254
-40.20554 31.40923 4.96731
-40.19300 31.73617 4.98434
-40.40168 35.80869 4.98506
-39.90964 -26.14540 4.98233
-39.84229 23.42202 4.96887
-39.92487 35.85475 4.97473
-39.37810 -26.15001 4.97839
-39.22188 -21.72069 4.98418
-39.25205 -16.40460 4.96485
-39.27560 -11.62513 4.95975
-39.30891 -6.68242 4.98251
-39.16740 -1.84047 4.96899
-39.24731 -1.52076 4.98251
-39.19717 -1.30410 4.97087
-39.15946 3.14956 4.97417
-39.22244 3.40346 4.98331
-39.25858 3.62947 4.95543
-39.19445 8.67613 4.96944
-39.22896 13.32633 4.97022
-39.20097 13.71588 4.97603
-39.24878 18.22503 4.96855
-39.19560 18.71289 4.97306
-39.45879 23.47426 4.99857
-39.43711 31.84794 4.98272
-39.53798 35.85036 4.98944
-39.00481 -26.12750 4.97454
-38.95254 -22.01253 4.95380
-38.92409 -21.04438 4.96716
-38.89991 -17.03248 4.96282
-38.90779 -16.08480 4.98447
-38.96170 -11.98110 4.97373
-38.97436 -11.11293 4.99573
-39.04751 -6.98738 4.96854
-39.00350 -6.10502 4.97860
-38.98034 -1.99371 4.99121
-38.92113 -1.09955 4.99025
-38.95345 2.98664 4.98344
-38.97627 3.88500 4.97532
-38.83973 7.98407 4.97227
-38.93560 8.84983 4.98075
-38.88861 13.87872 4.98960
-38.86697 13.98039 4.96364
-38.88405 17.93866 4.96489
-38.70530 18.96112 4.98716
-39.13608 23.49480 4.95535
-38.96719 31.85064 4.95137
-38.93816 35.87036 4.98065
-38.27702 -26.15560 4.98375
-38.36646 -21.79586 4.97187
-38.45085 -21.19136 4.99840
-38.62054 -17.00990 4.97358
-38.61335 -16.11161 4.97095
-38.59535 -11.95376 4.98940
-38.53141 -6.96045 4.95943
-38.30439 -6.55245 4.97714
-38.53145 -6.15547 4.96023
-38.32819 -1.52450 4.97123
-38.43170 -1.24883 4.97702
-38.50217 3.11912 4.96351
-38.26407 3.43529 4.95130
-38.53211 3.90193 4.95132
-38.53032 7.98632 4.99169
-38.34728 8.22033 4.98359
-38.54740 8.86876 4.99283
-38.68179 12.94426 4.99323
-38.42899 13.14961 4.99504
-38.43858 13.68926 4.99538
-38.69477 13.96148 4.99741
-38.59487 17.99050 4.98716
-38.39341 18.70297 4.97207
-38.55197 23.43908 4.96264
-38.63388 31.84808 4.97001
-38.39472 35.85492 4.96257
-38.13080 23.41993 4.97800
-37.94353 31.85254 4.98575
-37.62252 -26.15415 4.97586
-37.60016 23.43994 4.98532
-37.59151 31.85063 4.98426
-37.02313 -26.15650 4.97251
-37.17380 23.44455 4.97760
-37.11905 31.85470 4.98408
-37.07195 35.83908 4.98623
-36.59407 -26.14651 4.99794
-36.64900 23.42097 4.97410
-36.58728 31.85482 4.97849
-36.73434 35.85034 4.96353
-36.21390 23.41943 4.97741
-36.35224 31.85183 4.98357
-36.23054 35.85798 4.98992
-35.80211 23.42647 4.95884
-35.75805 31.84895 4.98527
-35.82390 35.85840 4.99357
-35.27672 -26.14052 4.96682
-35.29512 23.42158 4.99660
-35.11718 31.85846 4.95010
-35.23090 35.85710 4.98299
-34.68790 -26.16068 4.96019
-34.82923 23.43042 4.99034
-34.96168 31.85744 4.97515
-34.82096 35.86289 4.95319
-34.37790 -26.13876 4.97685
-34.20417 -23.23060 4.99156
-34.24743 -22.74650 4.98982
-34.24427 -22.31412 4.98921
-34.23805 -21.91587 4.97964
-34.23734 -20.53262 4.97247
-34.20425 -18.71645 4.96916
-34.20711 -18.22958 4.96951
-34.20305 -17.46325 4.96056
-34.20078 -15.77114 4.98853
-34.24064 -15.32693 4.98679
-34.23686 -15.02127 4.98674
-34.22207 -14.57402 4.97562
-34.22150 -13.18652 4.95523
-34.23762 -12.79753 4.98723
-34.23724 -10.97521 4.95495
-34.23582 -10.69953 4.99007
-34.24705 -10.15537 4.98895
-34.23391 -9.14948 4.97691
-34.23023 -8.77120 4.96254
-34.23343 -8.19699 4.97395
-34.23119 -7.66947 4.96153
-34.23456 -7.43232 4.96258
-34.23508 -6.85869 4.97028
-34.23616 -6.51694 4.95485
-34.22673 -6.13650 4.99372
-34.22838 -5.66205 4.97418
-34.22111 -5.30898 4.98059
-34.22743 -4.79308 4.97199
-34.22625 -4.25946 4.97519
-34.23424 -3.88369 4.98034
-34.21240 -3.31881 4.96641
-34.21173 -3.04125 4.95133
-34.23681 -1.63684 4.99531
-34.23638 -0.62033 4.97058
-34.23889 -0.04214 4.97504
-34.23980 1.81421 4.99648
-34.23999 2.31722 4.99271
-34.22602 2.98730 4.98007
-34.21555 3.37980 4.97280
-34.22023 3.71347 4.97825
-34.20554 4.74016 4.97841
-34.20211 5.31863 4.95725
-34.20265 6.20658 4.99412
-34.20169 6.96017 4.95317
-34.23704 7.52416 4.97040
-34.20194 16.12925 4.97069
-34.25535 16.67257 4.96460
-34.24434 18.24948 4.95593
-34.20244 20.70106 4.99162
-34.23291 21.15570 4.98992
-34.63140 31.84930 4.97997
-34.44102 35.85707 4.98152
-34.16366 -25.76865 4.95160
-34.15873 -25.41363 4.96852
-34.15822 -23.07810 4.97378
-34.17448 -22.59293 4.99450
-34.17729 -22.12272 4.98066
-34.16655 -21.80159 4.98762
-34.16612 -21.38716 4.97493
-34.19571 -19.37886 4.97902
-34.18538 -19.12431 4.99353
-34.18930 -18.19383 4.97486
-34.19127 -17.73999 4.97151
-34.17584 -17.19779 4.98021
-34.19814 -16.82171 4.96297
-34.18065 -16.40924 4.97088
-34.19546 -16.06768 4.99282
-34.19845 -15.48971 4.98336
-34.16187 -15.26185 4.99606
-34.19497 -13.48876 4.95749
-34.17413 -12.88293 4.97595
-34.17081 -12.19467 4.97473
-34.17813 -11.48700 4.97323
-34.17783 -10.70210 4.96386
-34.19646 -10.15414 4.95006
-34.16071 -7.07774 4.99376
-34.15685 -6.65089 4.97031
-34.15891 -6.20915 4.97259
-34.15307 -4.00990 4.96509
-34.19942 -3.59983 4.98253
-34.16225 -2.64056 4.98958
-34.17338 -0.24063 4.95689
-34.17561 0.20792 4.98523
-34.16359 0.63924 4.98704
-34.14213 1.09517 4.97129
-34.16912 2.02561 4.98450
-34.16307 2.67973 4.98668
-34.15936 3.39141 4.99503
-34.16553 4.02711 4.99719
-34.15002 4.38445 4.99133
-34.17021 4.88361 4.98210
-34.15733 5.13132 4.95930
-34.14909 5.52828 4.97852
-34.19297 6.60422 4.99128
-34.19816 7.13606 4.97536
-34.19273 7.36094 4.95453
-34.18737 7.76475 4.97968
-34.17797 8.25253 4.99120
-34.17440 9.04845 4.95077
-34.16287 9.68720 4.96688
-34.15989 10.03812 4.97159
-34.17205 10.45649 4.97572
-34.18112 11.04194 4.95731
-34.17842 11.49654 4.98061
-34.17384 11.94103 4.97756
-34.18195 12.29156 4.97426
-34.17924 12.83208 4.97538
-34.16755 13.67416 4.97594
-34.17514 14.23337 4.96033
-34.18367 14.70968 4.96161
-34.17670 14.99912 4.96525
-34.18570 15.54110 4.96935
-34.19692 16.47394 4.98440
-34.18681 16.88835 4.96887
-34.17750 17.22139 4.97311
-34.17564 18.56691 4.98995
-34.17245 19.13433 4.97059
-34.17410 19.53427 4.97776
-34.17309 20.53508 4.97171
-34.16950 20.93836 4.98836
-34.17273 21.29401 4.95489
-33.96249 35.86542 4.97766
-33.52056 31.86180 4.96979
-33.49175 35.87768 4.95753
-33.14888 35.85688 4.98832
-32.63689 31.85882 4.95638
-32.09617 35.85358 4.96983
-31.79544 31.85610 4.96935
-31.75488 35.84538 4.98799
-31.29086 31.85039 4.99331
-31.21931 35.84478 4.97900
-30.74482 31.84772 4.97546
-30.88601 35.85647 4.98460
-30.52326 31.85328 4.97652
-30.37555 35.88456 4.96334
-29.94293 -37.46478 4.97512
-30.01594 -37.07642 4.98049
-30.03135 -36.65428 4.98084
-29.96188 -35.88847 4.97117
-30.03179 -35.24310 4.97193
-30.00582 -34.85091 4.96772
-29.97991 -34.40902 4.97188
-29.94333 -33.90524 4.98375
-30.03528 -33.50992 4.97867
-29.98420 -32.66235 4.99426
-29.98009 -32.16598 4.98684
-29.99186 -31.68729 4.96513
-30.03469 -31.30738 4.98147
-30.00634 -30.87353 4.97814
-30.00641 -30.48306 4.97608
-30.01184 -29.87342 4.99555
-29.98113 -29.43063 4.96651
-30.01198 -29.10756 4.97907
-30.02239 -28.56752 4.96523
-30.03673 -28.10856 4.98519
-30.02641 -27.59607 4.98028
-30.03492 -27.27231 4.97027
-30.02839 -26.82304 4.99009
-29.98245 -26.15618 4.97553
-30.03299 -26.05423 4.97925
-30.01340 -25.45863 4.97538
-29.94651 -24.92536 4.95377
-30.02360 -24.61992 4.95650
-30.03476 -24.17338 4.97802
-30.02211 -23.51302 4.97756
-30.02470 -22.72025 4.99097
-29.92238 -21.90669 4.97406
-30.02162 -21.47928 4.97366
-30.01920 -20.97039 4.97509
-30.03484 -20.39791 4.99328
-30.01149 -19.57869 4.97582
-30.04247 -19.23718 4.97530
-30.03853 -18.71736 4.96687
-30.03455 -18.27204 4.97605
-30.00351 -17.84551 4.98809
-30.03786 -17.21594 4.97425
-30.03652 -16.74107 4.98377
-30.03282 -16.37718 4.98213
-30.03693 -15.81364 4.98919
-29.96490 -15.14231 4.99268
-29.95801 -13.74477 4.98778
-29.95374 -13.15298 4.99434
-29.96101 -12.95339 4.99387
-29.97265 -12.19314 4.97207
-29.98994 -11.00750 4.96593
-30.00513 -10.58377 4.95637
-30.00440 -10.14462 4.96076
-30.00814 -9.64483 4.96632
-29.98222 -9.11169 4.97051
-29.88959 -8.47281 4.98026
-30.02351 -7.94524 4.97103
-30.02424 -7.43629 4.97650
-30.01119 -6.90008 4.99160
-30.03616 -6.48565 4.97769
-30.01081 -6.07217 4.97066
-30.01479 -5.57869 4.97079
-30.00777 -5.10391 4.97036
-30.02636 -4.86764 4.95978
-30.03893 -4.38270 4.97895
-30.04441 -3.82097 4.97344
-30.03929 -3.32019 4.99963
-29.98499 -2.84462 4.95976
-30.01807 -2.44985 4.97488
-30.00234 -2.08003 4.97533
-29.98049 -1.67286 4.97399
-30.02937 -1.15204 4.95813
-30.01558 -0.68419 4.96941
-30.02147 -0.33654 4.96833
-29.97764 0.00328 4.96823
-29.89270 0.51992 4.97154
-29.96768 1.01760 4.98579
-30.03341 1.66858 4.98904
-30.01609 2.00431 4.97252
-30.03239 2.42453 4.98853
-30.03725 2.88490 4.99736
-29.99298 3.33128 4.97834
-30.03511 3.73890 4.97864
-30.03518 4.16787 4.97541
-29.97845 4.60591 4.98840
-30.03677 5.06401 4.97933
-29.97781 5.57659 4.96365
-30.00574 6.05366 4.98407
-30.00981 6.61035 4.95075
-30.00329 6.94955 4.97365
-29.97496 7.38893 4.95868
-29.93800 8.83866 4.97809
-29.76202 9.03217 4.95290
-29.90236 9.63222 4.98057
-29.99150 10.50667 4.97356
-30.00938 11.02246 4.96356
-29.98110 11.31531 4.95334
-30.01547 11.90870 4.99770
-30.00388 12.26132 4.96836
-30.00167 12.75175 4.97874
-30.00182 13.17534 4.97609
-29.99861 13.60512 4.97789
-29.99602 14.10079 4.97149
-29.99208 14.61815 4.98204
-29.99542 15.21393 4.95983
-29.99758 15.46368 4.95187
-29.98139 15.90084 4.97930
-29.99332 16.34079 4.96912
-29.97521 16.80722 4.96962
-29.99976 17.35018 4.97129
-29.95298 17.82175 4.97016
-29.88522 18.02973 4.97792
-30.04103 18.61081 4.99271
-30.02042 19.07898 4.96955
-30.02141 19.73713 4.95780
-30.03936 20.57858 4.97884
-30.03767 21.35732 4.98304
-30.01862 22.37963 4.96169
-30.01275 22.84716 4.97675
-29.97764 23.20380 4.99599
-29.99887 24.49899 4.96045
-29.96102 24.90751 4.99725
-30.01953 25.43414 4.98314
-30.01482 26.20477 4.98416
-29.96932 26.91804 4.95418
-29.96814 27.62978 4.97635
-29.95575 28.16519 4.97086
-29.99833 28.56240 4.96176
-30.01343 28.82155 4.98866
-30.01961 29.46283 4.97808
-30.02661 29.88066 4.97345
-30.00286 30.36327 4.96909
-30.03095 30.78566 4.95554
-29.97783 31.79028 4.97268
-30.01448 35.92509 4.97588
-29.78800 36.03145 4.95082
-29.96396 36.62500 4.96402
-29.95460 37.13990 4.96566
-29.87364 37.48198 4.96756
-29.56808 -37.50212 4.97377
-29.53231 -36.23448 4.96443
-29.61177 -35.97792 4.97980
-29.45397 -14.21567 4.98666
-29.69707 -9.01802 4.96916
-29.50690 -8.74694 4.96742
-29.69183 -8.46451 4.97064
-29.52380 0.15701 4.96590
-29.61271 0.54248 4.99307
-29.51888 8.95916 4.95440
-29.52887 9.14768 4.98978
-29.61588 9.52909 4.98205
-29.60423 17.99842 4.95572
-29.47628 18.17862 4.98331
-29.56792 26.99553 4.96999
-29.53531 27.22017 4.96681
-29.54633 36.16282 4.96408
-28.87401 -37.48482 4.96625
-28.95162 19.53371 4.99169
-29.03210 21.36720 4.98775
-28.94705 25.86169 4.97661
-28.62943 -37.48297 4.96710
-28.61339 19.47287 4.97330
-28.72446 21.46792 4.99912
-28.58312 25.96355 4.98574
-28.61515 37.53897 4.98614
-28.13938 -37.49891 4.97447
-28.03875 19.45522 4.98687
-28.00861 21.45684 4.98840
-28.03569 37.52554 4.98016
-27.63509 -37.47468 4.97747
-27.67242 19.45928 4.96778
-27.59358 25.95559 4.97147
-27.67070 37.51423 4.98889
-27.24218 -37.47368 4.95970
-27.10311 19.46875 4.98270
-27.29229 21.46784 4.96125
-27.06349 25.96113 4.96964
-27.24453 37.53107 4.99531
-26.97977 -37.47407 4.96304
-26.80258 19.47111 4.99052
-26.75852 23.96161 4.99677
-26.83593 25.96306 4.98653
-26.32681 19.47808 4.98672
-26.30382 21.47631 4.98454
-26.20982 23.95093 4.98116
-26.25896 25.97601 4.97402
-26.29557 37.50999 4.97953
-25.87545 19.49230 4.98790
-25.66183 19.96734 4.96979
-25.82515 21.38932 4.96909
-25.90369 23.97214 4.99138
-26.09373 25.96583 4.97420
-25.81565 37.51006 4.99494
-25.60689 19.74357 4.98126
-25.64561 20.20420 4.96764
-25.62379 20.47745 4.98104
-25.61792 20.75013 4.95024
-25.58318 24.07633 4.97113
-25.50689 24.46015 4.96885
-25.53490 25.06614 4.97818
-25.52695 25.39977 4.97244
-25.55176 25.87623 4.96841
-25.42871 37.51975 4.99166
-24.99396 -37.46298 4.98279
-24.81676 37.48166 4.98190
-24.39258 37.45316 4.97965
-24.09678 -37.49783 4.97962
-24.03651 37.47041 4.97202
-23.54678 -37.52663 4.98349
-23.61245 37.49825 4.98113
-23.28913 -37.47751 4.96712
-23.16616 37.49147 4.97692
-22.76888 -37.51152 4.99240
-22.91901 37.53008 4.97076
-22.22888 -37.51405 4.97764
-22.16084 37.49651 4.98311
-21.82230 -37.55050 4.96953
-21.85229 37.44382 4.97266
-21.31300 -37.54659 4.97545
-21.51437 37.48919 4.98099
-20.91820 -37.48855 4.97268
-20.84593 -36.01413 4.95291
-20.90107 37.50168 4.98162
-20.48947 -37.50949 4.95765
-20.44782 -36.52712 4.97211
-20.48570 -36.21917 4.97230
-20.63315 -35.95506 4.95283
-19.99579 -37.51919 4.97000
-20.02123 -22.17029 4.96863
-19.85350 -21.99271 4.96084
-20.00044 -14.40191 4.96768
-19.92154 -14.05078 4.97822
-19.90733 -8.97019 4.99449
-19.99176 -8.45948 4.99161
-20.03839 0.28404 4.96172
-19.90792 0.52332 4.98135
-19.93707 9.11542 4.96406
-19.91439 9.46908 4.97346
-19.96588 17.99735 4.95281
-19.94726 18.12105 4.97580
-19.93474 18.49853 4.97011
-20.02859 27.41415 4.97052
-19.94302 27.47951 4.99402
-20.01115 36.15843 4.96769
-20.03567 36.49690 4.96917
-19.55909 -37.53219 4.95316
-19.62406 -22.29426 4.97071
-19.53801 -14.47711 4.96181
-19.49753 -14.19628 4.97024
-19.45690 -8.79333 4.96772
-19.76486 -8.46653 4.99399
-19.61607 -0.03384 4.97340
-19.53140 0.36338 4.97983
-19.65544 0.53930 4.99296
-19.51291 9.10370 4.97796
-19.49850 9.45202 4.95544
-19.55587 18.13849 4.96792
-19.61886 18.54512 4.98468
-19.61295 27.13476 4.98032
-19.63576 27.49219 4.95742
-19.66050 36.02710 4.98416
-19.48527 37.49933 4.98201
-19.16765 -37.50634 4.98125
-18.71564 -37.53873 4.95745
-18.71087 37.52229 4.97397
-18.31592 37.52324 4.97500
-17.91382 -37.55757 4.96543
-17.72849 37.52288 4.97365
-17.51066 -37.45981 4.98717
-17.41462 37.47364 4.97973
-16.99772 -37.45905 4.96734
-16.85496 37.49032 4.97080
-16.59342 -37.52421 4.97649
-16.51949 37.50717 4.98984
-16.02641 -37.52236 4.99289
-16.05058 37.50132 4.97308
-15.56813 37.53267 4.96845
-15.22522 -37.45328 4.97465
-15.12360 1.32885 4.95401
-14.99973 1.57147 4.97846
-15.00725 2.05945 4.97539
-14.99788 2.46415 4.97780
-15.01396 2.88620 4.97543
-15.00969 3.27801 4.97231
-15.03685 6.07572 4.97713
-15.05332 6.48738 4.97623
-15.08199 6.95914 4.97000
-15.03242 7.48173 4.97990
-15.08256 7.89361 4.96833
-14.88130 8.16531 4.99905
-14.96240 37.50531 4.97138
-14.84301 -37.53407 4.97796
-14.45226 3.48279 4.96835
-14.70661 5.94834 4.98254
-14.47449 8.07129 4.97369
-14.79101 8.15922 4.95240
-14.69490 37.45826 4.97654
-14.14967 -37.50320 4.99543
-14.01465 1.15980 4.96933
-14.08518 3.51232 4.99365
-14.03259 5.93446 4.97799
-14.08771 8.07541 4.97124
-14.07454 8.31907 4.96882
-14.11378 37.50430 4.97483
-13.50528 -37.54257 4.97389
-13.80981 3.44928 4.98124
-13.69313 5.95679 4.98706
-13.68309 8.16184 4.96773
-13.75462 37.49380 4.98655
-13.07974 -37.54479 4.96292
-13.26439 1.24999 4.98440
-13.25097 3.44451 4.98345
-13.42029 5.96534 4.97616
-13.24388 8.16125 4.96634
-13.27484 37.51179 4.98556
-12.87994 -37.47407 4.95454
-12.92759 5.95899 4.98295
-12.74983 8.07900 4.98273
-13.04281 8.15965 4.99814
-12.67559 37.47704 4.98400
-12.28928 -37.49004 4.98774
-12.54648 3.43781 4.95391
-12.30780 5.93443 4.97613
-12.42154 8.08278 4.95077
-12.33452 8.16151 4.95270
-12.37934 37.48661 4.99032
-11.88415 -37.51458 4.97226
-12.03448 -36.48087 4.97532
-12.03640 -36.14977 4.97229
-12.02360 -35.99808 4.95944
-11.80026 3.44813 4.98215
-11.85729 5.87692 4.96763
-11.90633 8.07652 4.96990
-12.06925 8.16611 4.99773
-11.88909 37.46904 4.97643
-11.53950 -36.21838 4.97982
-11.46527 1.20108 4.96588
-11.64278 5.93918 4.96445
-11.59687 8.07867 4.97433
-11.45897 8.16009 4.98714
-11.62784 37.50528 4.99656
-11.05512 1.20404 4.97369
-10.98742 3.44276 4.98822
-11.04056 5.91065 4.97287
-10.81135 8.08458 4.98131
-11.00119 8.16380 4.99298
-11.01785 37.49703 4.97532
-10.59307 -37.64029 4.97304
-10.63518 1.21373 4.99730
-10.59949 8.10334 4.95685
-10.64712 37.47520 4.97538
-10.11518 -37.56567 4.98216
-9.98378 -22.50098 4.97664
-10.00324 -22.24481 4.98589
-10.03944 -22.04087 4.98106
-9.99268 -21.45124 4.96895
-9.99884 -21.09373 4.99357
-10.01582 -20.40370 4.97982
-10.01399 -20.02097 4.97281
-10.00566 -19.29846 4.99308
-10.03895 -18.68203 4.95813
-10.04284 -18.20725 4.96441
-10.00639 -17.73151 4.97654
-10.03916 -17.42168 4.99399
-9.95498 -16.98251 4.97141
-10.02240 -16.42636 4.96595
-10.01802 -15.99113 4.97913
-9.98717 -15.60226 4.97568
-9.96558 -15.06924 4.96678
-9.99465 -14.55671 4.98690
-9.97543 -14.30637 4.98747
-10.00459 -8.91227 4.96945
-9.97366 -8.50848 4.95691
-9.98072 -7.88381 4.97251
-9.96702 -7.36311 4.96539
-9.98688 -6.97519 4.98082
-10.00351 -6.69000 4.96608
-10.01080 -5.97206 4.96345
-10.00217 -5.56737 4.97773
-10.04280 -5.10942 4.95519
-10.04019 -4.64420 4.96950
-9.98092 -4.19544 4.97199
-9.96245 -3.83969 4.99398
-10.04837 -3.36412 4.96308
-9.96751 -2.84047 4.98946
-9.96566 -2.53367 4.98034
-9.96241 -2.07970 4.96604
-10.03304 -1.61147 4.96519
-10.00083 -1.12731 4.99077
-10.01689 -0.86373 4.98664
-9.97711 -0.15783 4.97687
-9.98384 0.17012 4.97509
-10.00409 0.68771 4.97746
-10.00441 1.14651 4.98277
-9.97758 1.57595 4.96971
-9.98273 1.86820 4.99362
-9.97438 3.51675 4.95275
-9.96699 3.64052 4.98772
-9.98522 4.30084 4.97129
-10.04033 5.27302 4.97064
-9.96228 5.69041 4.97949
-9.98402 6.09715 4.96211
-9.99195 6.37635 4.99984
-9.98961 7.08769 4.96399
-9.95661 7.49098 4.97027
-9.96493 7.83719 4.98293
-9.96438 8.55636 4.96071
-9.99649 10.48020 4.96393
-10.00992 11.01983 4.99582
-10.02121 13.27020 4.98697
-10.00143 13.89125 4.99935
-10.01833 14.00691 4.98316
-9.99789 14.60031 4.95671
-10.00091 15.01494 4.98183
-10.00926 15.37328 4.98236
-9.99405 16.36443 4.96427
-9.97693 17.09695 4.99928
-9.99232 17.79452 4.99539
-10.01019 18.19748 4.97284
-9.90306 18.53911 4.97560
-10.25333 37.45671 4.96262
-9.67311 -37.56960 4.97604
-9.59554 -22.50012 4.97674
-9.77355 -19.02957 4.98984
-9.79947 -17.90975 4.96259
-9.79261 -16.89080 4.97106
-9.82803 -16.32825 4.96846
-9.78041 -15.87910 4.96808
-9.77255 -15.22922 4.97411
-9.76569 -14.61290 4.97621
-9.81245 -14.19963 4.97766
-9.55798 -8.98244 4.98737
-9.74977 18.50350 4.96720
-9.80623 37.55507 4.95677
-9.29631 -37.49975 4.99267
-9.36248 -22.53915 4.99925
-9.16108 -22.47915 4.98508
-9.11524 -9.02167 4.99767
-9.01615 -8.99491 4.99605
-9.14646 18.46959 4.95613
-9.24526 37.49391 4.97316
-8.85525 -37.49957 4.99191
-8.89465 -22.49482 4.98219
-8.61385 -20.38447 4.96466
-8.61340 -19.52266 4.95390
-8.62025 -19.14353 4.96013
-8.58875 -18.72163 4.99005
-8.58372 -18.32974 4.96204
-8.64957 -17.85010 4.97671
-8.62372 -17.28390 4.96598
-8.57413 -16.67100 4.99632
-8.59704 -16.36198 4.96853
-8.61950 -15.56785 4.97238
-8.60887 -15.20441 4.97994
-8.71805 -8.99324 4.98387
-8.95877 18.47264 4.95723
-8.76137 26.95298 4.98024
-8.97942 27.22133 4.97699
-8.70503 27.48949 4.97731
-8.96315 36.00874 4.98499
-8.59936 37.50439 4.96100
-8.33481 -37.50574 4.99225
-8.41321 -22.50260 4.97728
-8.30191 -22.48074 4.97623
-8.54736 -14.94245 4.98624
-8.47260 -9.01088 4.99780
-8.18046 -8.99819 4.98033
-8.31778 18.49766 4.98342
-8.50519 27.18693 4.96861
-8.46214 36.27626 4.95214
-8.37943 37.51087 4.98673
-8.01090 -37.51115 4.98549
-8.02200 -22.50211 4.97776
-7.94966 -14.94717 4.98190
-7.74597 -9.01163 4.99283
-7.97312 18.51473 4.97508
-7.87018 37.54519 4.99138
-7.47220 -37.48524 4.97837
-7.32040 -22.53391 4.99009
-7.33335 -14.96061 4.97456
-7.25690 -8.96524 4.99370
-7.38163 18.47675 4.98145
-7.26865 26.97464 4.96374
-7.49883 27.41169 4.95556
-7.36648 37.51926 4.96040
-6.89185 -37.51521 4.98616
-6.88138 -22.52627 4.98706
-6.96608 -22.47608 4.96284
-7.08616 -14.96089 4.97896
-6.83362 -9.00184 4.95469
-7.08308 -8.96385 4.95835
-6.90055 18.67680 4.97694
-6.90365 18.92241 4.98249
-7.07152 27.07252 4.97349
-7.08190 27.50360 4.97354
-6.75791 36.66917 4.97876
-6.99899 37.15884 4.96898
-6.99291 37.40472 4.96039
-6.33474 -37.50845 4.95928
-6.37725 -22.50086 4.95078
-6.57114 -14.95832 4.97984
-6.48468 18.61391 4.98194
-6.45594 37.31841 4.95309
-6.06052 -37.50100 4.97155
-6.14551 -22.53340 4.99598
-6.04989 -22.33661 4.99781
-6.21048 -19.95964 4.97091
-6.21065 -19.54777 4.96740
-6.20112 -19.22186 4.95240
-6.21295 -18.72471 4.95929
-6.20069 -18.38100 4.97578
-6.19989 -17.80524 4.99210
-6.22044 -16.77459 4.99741
-6.20848 -16.48130 4.98337
-6.11340 -9.00874 4.96387
-6.11737 18.60998 4.95742
-6.27059 37.29693 4.99389
-5.99413 37.36442 4.95059
-5.65742 -37.53231 4.95726
-5.62973 -22.32585 4.99614
-5.60544 -9.00341 4.98442
-5.73119 37.28701 4.98163
-5.40016 37.36175 4.95426
-5.09808 -37.49789 4.96810
-5.16460 -22.52713 4.98722
-4.95897 -22.28430 4.98871
-5.01234 -21.37335 4.97190
-5.00473 -20.79900 4.97676
-5.11629 -20.49666 4.96801
-5.00687 -19.98906 4.98849
-5.07543 -19.50789 4.97278
-5.09349 -19.03136 4.98227
-5.08408 -18.68680 4.97268
-5.11096 -18.34361 4.96576
-5.08305 -17.78224 4.96637
-5.11397 -17.29315 4.96861
-5.09553 -16.92368 4.97189
-5.00022 -16.41887 4.97418
-5.02905 -15.87030 4.98203
-5.13002 -15.52549 4.97770
-5.15718 -15.01860 4.97309
-5.12290 -14.56571 4.98075
-5.19604 -14.20384 4.96617
-5.24369 -13.84719 4.98732
-5.19595 -13.19500 4.98648
-5.18617 -12.85250 4.97912
-5.20198 -12.41041 4.96794
-5.18835 -11.73318 4.98426
-5.21987 -11.34160 4.99942
-5.16186 -11.03189 4.97561
-5.16577 -10.70905 4.95903
-5.18817 -10.19773 4.97776
-5.24439 -9.18385 4.97195
-5.30811 18.67309 4.97267
-5.19621 37.36249 4.97043
-4.72591 -37.51708 4.96916
-4.72578 -14.19259 4.97607
-4.71690 18.72054 4.96102
-4.84801 37.33480 4.97922
-4.23100 -37.53073 4.97328
-4.28376 -14.19626 4.97247
-4.11932 18.76373 4.95683
-3.85189 -37.53145 4.98657
-3.83717 -14.17950 4.98432
-3.79947 18.76438 4.98975
-3.88280 37.28068 4.99782
-3.88475 37.36782 4.98286
-3.20289 -37.53149 4.97990
-3.33595 -14.17504 4.98019
-3.34672 18.84918 4.96653
-3.17332 37.37615 4.99159
-2.86632 -37.51967 4.98155
-3.03997 -36.15816 4.99752
-2.88602 -14.17641 4.97238
-2.98136 18.88228 4.97537
-2.93508 18.90346 4.95617
-2.74287 37.36060 4.95251
-2.47079 -37.51526 4.98305
-2.55355 -36.16524 4.98054
-2.43272 -14.17527 4.96653
-2.56268 18.86829 4.98815
-2.47003 18.91408 4.96712
-2.11179 -37.49687 4.97446
-1.90360 -22.55778 4.98516
-2.02804 -22.34787 4.97004
-2.01991 -21.42762 4.99867
-2.01810 -20.97537 4.98192
-2.01826 -20.37528 4.97849
-2.02064 -20.06588 4.96602
-2.01076 -19.69346 4.97872
-2.01879 -19.04488 4.97185
-2.00518 -18.75168 4.95665
-2.01652 -18.17992 4.96605
-2.00446 -17.73324 4.97693
-2.00918 -17.53560 4.99630
-1.99761 -16.93925 4.97876
-2.00978 -15.98766 4.99769
-2.00278 -15.57480 4.97250
-2.10140 -14.25058 4.96115
-2.01221 18.93473 4.96868
-1.89522 37.33733 4.97410
-1.48186 -37.49658 4.97549
-1.38220 -22.53818 4.95379
-1.66538 -22.49948 4.95189
-1.68014 18.94599 4.95903
-1.04997 -37.50238 4.97235
-1.11487 -22.52277 4.96515
-1.27315 18.98987 4.97143
-0.96089 37.36705 4.98732
-0.79378 -37.50112 4.98031
-0.58327 19.06447 4.95490
-0.72323 37.36581 4.97258
-0.35778 -37.50829 4.96683
-0.11287 -22.50088 4.95394
-0.37362 19.07299 4.98161
-0.12015 19.67253 4.99847
-0.04403 28.88595 4.99096
-0.07445 35.92727 4.98745
-0.07359 36.14283 4.97343
-0.25215 37.35880 4.97110
0.12925 -37.52456 4.97916
0.28146 -22.46530 4.98399
0.36456 19.91472 4.98145
0.15492 28.54099 4.98364
0.12826 29.03665 4.97146
0.20766 35.86776 4.96768
0.37538 36.11029 4.96739
0.15053 37.34250 4.95131
0.40917 37.35724 4.99905
0.66772 -37.46542 4.99446
0.73711 -22.50912 4.95827
0.89239 19.17965 4.98675
0.45287 19.73025 4.95397
0.45501 19.88831 4.98034
0.45325 28.79878 4.97999
0.45236 36.18517 4.97267
0.53204 37.37542 4.98073
1.00571 -22.50680 4.96560
1.25835 -22.49846 4.97451
1.16151 19.16690 4.96361
1.34262 37.33095 4.98633
1.40615 -37.48339 4.95093
1.54810 -22.51560 4.97057
1.62360 -22.49963 4.95505
1.59847 19.18966 4.97787
1.52478 37.29128 4.96910
1.59682 37.35692 4.97830
1.92841 -37.48426 4.95386
2.04397 -22.50113 4.98513
2.05264 -22.48830 4.96968
2.01468 19.21838 4.95184
1.93902 37.37369 4.99405
2.45101 -37.46627 4.95496
2.50604 -22.49364 4.97682
2.33891 19.26775 4.97128
2.48068 37.34423 4.96918
2.27784 37.35522 4.97378
3.03285 -37.49299 4.96127
3.01876 -22.52160 4.96773
2.79862 -22.49782 4.95564
3.01512 19.30148 4.96363
2.89301 37.36069 4.98656
3.37599 -37.47133 4.95941
3.50840 -22.50285 4.95268
3.32412 19.33514 4.96923
3.39714 37.35580 4.99043
3.94669 -37.48385 4.96496
3.88505 -22.50039 4.98293
3.72795 -22.46592 4.98699
3.60729 19.31747 4.95209
3.78254 19.36510 4.99941
3.73234 37.34160 4.98509
4.10230 -37.54340 4.99703
4.13121 19.39222 4.98603
4.12847 37.29316 4.97281
4.05119 37.36158 4.99042
4.72795 -37.48438 4.98392
4.93631 -22.47048 4.95325
4.61941 19.40856 4.98303
4.68711 37.35602 4.99881
4.98412 -37.49804 4.96847
5.16094 -22.50056 4.95520
5.03592 -22.49002 4.99323
5.22819 19.45205 4.97893
5.27737 37.29024 4.99276
5.73525 -37.49751 4.99014
5.83308 -22.48346 4.99122
5.41839 19.43199 4.95908
5.55609 37.33796 4.95567
6.07960 -37.49985 4.99580
6.04360 -36.19207 4.98468
6.07373 19.47041 4.96458
6.52134 -37.50089 4.97447
6.56979 -36.32402 4.99313
6.36679 -35.96646 4.99796
6.45407 -22.49553 4.98096
6.57692 19.49961 4.97472
6.39770 37.34286 4.96451
6.96439 -37.51907 4.97644
6.85876 -22.47107 4.96573
7.01529 19.57254 4.97783
7.09763 37.36198 4.95680
7.34421 -37.52188 4.96576
7.36663 -22.50258 4.96172
7.63190 -22.46822 4.96885
7.52454 19.61592 4.99250
7.51659 37.36102 4.95985
7.87628 -37.50488 4.96768
8.01726 -22.47624 4.96545
8.05588 19.59846 4.97924
7.94149 37.31782 4.96293
8.32125 -37.53084 4.96300
8.31728 -22.47484 4.96798
8.47351 19.67989 4.98380
8.40955 20.35604 4.98579
8.39333 28.66504 4.96797
8.39427 28.97397 4.96872
8.39039 35.90326 4.95500
8.43031 36.10174 4.96679
8.37292 37.35493 4.97815
8.90796 -37.51212 4.97319
8.81295 -22.50114 4.96837
8.72521 19.67729 4.98598
8.84587 20.38123 4.96204
8.76690 28.56367 4.97569
8.87719 29.03122 4.98120
8.56596 35.77896 4.95349
8.95954 36.32165 4.97888
8.75818 37.36023 4.97962
9.19344 -22.48890 4.96786
9.15592 19.76308 4.95392
9.19418 28.57478 4.96817
9.22048 29.02294 4.96336
9.04622 37.33963 4.98220
9.29402 37.35782 4.98390
9.60395 -37.50018 4.97996
9.64663 -22.50169 4.99199
9.48459 -22.49076 4.95162
9.62700 19.77653 4.95145
9.61750 28.55628 4.98900
9.58324 29.03525 4.99223
9.69774 37.34673 4.98677
9.69263 37.35729 4.99528
10.04317 -37.51648 4.96680
10.03877 -22.50148 4.97991
9.90137 19.77484 4.99937
10.17189 19.81236 4.97594
9.98704 28.59200 4.97284
10.18231 29.00773 4.97631
9.97397 37.29965 4.97127
10.16143 37.36461 4.99963
10.70762 -37.47728 4.99884
10.45347 -22.49532 4.98795
10.58520 28.54529 4.99618
10.61065 37.32753 4.95525
11.22046 -22.50746 4.97066
11.10610 -22.47200 4.97376
11.20477 19.79670 4.96944
10.99634 19.87575 4.97074
10.90848 29.04078 4.96356
11.04729 37.28534 4.98461
11.27393 -37.56011 4.95060
11.55242 -23.90363 4.97350
11.52987 -23.61318 4.98000
11.37544 -22.51015 4.97465
11.54472 -22.46756 4.96870
11.59545 19.85969 4.99231
11.60106 28.54307 4.99427
11.37294 29.03979 4.97282
11.38317 37.30256 4.96590
11.59102 37.38348 4.98115
11.89932 -37.53156 4.95414
12.04189 -23.98033 4.99951
11.97945 -23.62121 4.97733
12.12710 -22.54338 4.97522
11.98687 19.86819 4.97173
11.87774 28.52707 4.96763
11.74543 29.05409 4.97606
11.92769 37.32734 4.96803
12.27899 -37.56706 4.95586
12.17718 -22.28221 4.97107
12.19380 -21.64566 4.98359
12.21691 -21.40831 4.98059
12.20151 -21.04336 4.95908
12.19206 -20.44202 4.97833
12.19100 -20.06758 4.97776
12.18956 -19.61019 4.96121
12.19965 -19.23346 4.96609
12.19566 -18.54657 4.98303
12.19881 -18.13480 4.99273
12.19914 -17.73253 4.98861
12.20153 -17.27414 4.98221
12.18463 -16.60645 4.95179
12.17512 -15.92807 4.97641
12.19215 -15.51811 4.96818
12.19542 -15.10705 4.98415
12.19552 -14.14129 4.98246
12.19605 -13.32656 4.97713
12.18812 -12.85275 4.98995
12.17806 -12.30074 4.98518
12.19592 -11.83792 4.97029
12.20060 -11.34564 4.96456
12.19599 -10.84701 4.97436
12.20752 -10.55740 4.99813
12.18827 -10.05704 4.96868
12.21462 -9.65619 4.96732
