# .PCD v0.7 - Point Cloud Data file format
VERSION 0.7
FIELDS x y z
SIZE 4 4 4
TYPE F F F
COUNT 1 1 1
WIDTH 1705
HEIGHT 1
VIEWPOINT 0 0 0 1 0 0 0
POINTS 1705
DATA ascii
-54.21989 -11.24747 10.16331
-44.35048 -21.53375 7.47997
-44.89866 -15.02288 10.26224
-34.24858 -22.23299 9.57051
-47.97717 -1.11054 10.25893
-48.09726 17.17538 10.26210
-63.09365 5.72089 7.16362
-62.74306 0.61764 7.16241
-63.83265 -2.86891 8.30180
-62.62934 -8.39013 10.26095
-62.88565 -13.00162 7.16152
-63.84342 -18.69379 8.96148
-54.54726 -14.01288 7.16192
-54.32689 -6.48962 9.82713
-50.94723 -8.02699 10.26239
-34.25419 -21.78176 9.57019
-49.23086 -1.23990 9.74612
-59.14246 8.07889 8.92509
-62.69775 2.47182 7.16231
-63.84054 -2.24938 9.74206
-63.84645 -4.33280 8.32294
-59.63294 -5.55362 7.16339
-58.66181 -4.44773 7.15998
-55.30802 -8.33791 10.26077
-52.44562 -10.83660 10.26147
-39.11895 -19.46218 10.26270
-53.92087 -1.06754 8.77687
-56.04400 3.75310 7.16246
-60.21983 2.85879 7.16190
-63.83279 -1.11288 8.02049
-61.57912 -2.72723 7.16372
-59.88315 -8.13604 7.16318
-57.26776 -2.54194 7.16254
-50.88089 -17.59673 10.26040
-39.53741 -26.14517 9.59503
-47.71195 -9.90005 7.16339
-35.47840 -14.62654 10.26195
-43.59731 4.28437 10.26291
-59.22879 3.14009 7.16435
-63.86205 3.23506 7.56104
-63.84020 -1.63204 7.81104
-60.54110 -2.07039 7.16357
-60.93203 -3.67607 7.16244
-55.94219 -9.67233 10.26438
-49.70345 -16.87085 10.26277
-49.45590 -11.06200 7.16263
-50.79659 -6.66945 10.26188
-54.30331 -1.45344 9.06686
-56.44726 4.63065 7.16175
-62.33404 2.68596 7.16123
-63.66285 -3.22534 7.16339
-60.99809 -2.77146 7.16559
-63.84447 -10.32031 8.94676
-54.51338 -13.94527 10.26153
-45.79872 -23.27968 10.26238
-48.54607 -10.53498 10.25957
-34.25624 -12.32854 7.43363
-55.75331 1.72370 7.16484
-63.84067 8.50125 10.15583
-63.33403 -1.73293 7.16254
-63.84551 -6.16514 10.07512
-62.48301 -7.74486 10.26360
-61.24098 -7.97057 7.16295
-63.02597 -26.15249 8.38138
-51.48630 -12.43688 10.26510
-39.69956 -18.26432 10.26225
-54.23197 -1.84493 8.56418
-57.15085 2.37670 7.16313
-60.32885 3.31883 7.16443
-63.83132 -3.27662 8.61374
-63.17897 -7.37856 7.16356
-61.07263 -5.56431 7.16237
-61.02099 -13.89976 7.16358
-60.00954 -26.15889 10.23173
-50.94450 -11.85274 10.26317
-52.66183 -5.28176 10.26539
-50.87168 -1.62916 10.26152
-56.29387 5.58281 7.16303
-61.49208 2.21705 7.16076
-61.75967 -2.21701 7.16480
-63.14170 -7.59102 7.16299
-63.15727 -14.15898 10.26264
-61.26029 -13.97079 7.16386
-59.73934 -18.87010 10.26165
-48.63570 -8.90108 7.16303
-54.92554 -0.04799 7.16333
-59.25959 8.19619 9.46000
-63.83536 0.47643 7.98686
-63.04019 -5.01013 7.16286
-62.54100 -7.94141 7.16470
-62.75689 -14.34314 10.25940
-62.27360 -26.16176 7.45245
-59.57779 -14.66131 10.26202
-45.51457 -12.57929 10.26203
-46.71083 -5.72067 7.16253
-59.36470 6.27601 7.16134
-62.85688 -2.27205 7.16084
-63.80049 -23.61048 9.17520
-55.80184 -13.63806 7.16268
-58.09611 2.32436 7.16555
-63.79248 -1.25073 7.40111
-62.51121 -8.26173 10.26100
-61.62259 -11.87221 10.26282
-58.76350 -5.95937 7.16081
-35.55565 -11.38323 10.26243
-59.26615 3.28280 8.31318
-63.61519 -4.90586 7.16364
-61.35304 -4.56414 7.16318
-63.75120 -18.78265 10.26209
-60.86396 -10.17037 10.26058
-59.63411 -8.63778 7.16233
-55.69658 -11.38329 10.26359
-48.72297 7.95020 9.60164
-63.55166 -5.24868 7.16455
-62.19708 -8.55923 7.16420
-62.14283 -14.44025 7.16324
-61.07342 -26.20013 8.36750
-58.89694 -11.10361 8.10415
-53.87182 -13.76688 10.26332
-56.81809 4.91479 7.16516
-63.77988 -2.00265 7.16250
-61.08842 -3.21770 7.16595
-63.81802 -20.02458 7.56908
-62.15198 -26.19707 7.46609
-59.72133 -15.37552 10.25942
-51.30219 -25.89097 10.26179
-45.26142 -22.88749 10.26294
-51.46935 7.79638 10.26290
-63.43158 -0.22418 7.16044
-61.64991 -3.93083 7.16198
-62.78379 -10.81704 10.26282
-61.47711 -15.24309 7.16210
-60.21886 -4.18350 7.16225
-58.25197 -6.66239 7.16339
-54.78724 -11.63283 10.26116
-50.25013 -11.76972 10.26374
-49.74301 4.81157 10.26320
-62.04588 13.81115 10.26302
-63.82801 -6.66318 8.02374
-63.82069 -14.64855 8.63513
-63.38611 -26.19598 9.22884
-60.84304 -13.35507 10.26087
-60.10432 -5.11134 7.16496
-57.08092 -9.32668 10.26278
-49.00880 -16.13487 9.56102
-55.60236 -4.84248 7.16367
-47.52222 5.75941 10.26216
-61.24092 7.44668 10.26014
-63.81203 -6.92541 8.88020
-63.62879 -15.68954 7.16356
-63.51807 -26.18270 9.20906
-61.06875 -15.98730 7.16316
-59.71483 -13.68186 10.26153
-54.07237 -26.18990 8.35925
-56.23517 -8.95016 7.16361
-42.08185 -20.91339 10.26172
-54.27481 -6.46107 8.33666
-56.14077 5.79952 10.26041
-62.85066 -4.02897 7.16235
-62.75823 -10.40619 7.16347
-62.23329 -16.29779 7.16369
-60.94548 -16.37237 7.16316
-59.39832 -16.30337 7.16279
-58.43001 -10.44328 10.26182
-45.96111 -24.33431 10.26310
-41.52618 -20.61854 10.26308
-46.71422 -6.36893 10.26095
-53.66995 2.93411 10.25972
-62.52036 1.48095 7.15986
-63.38567 -8.05744 7.16237
-63.81164 -17.49108 9.79710
-62.13196 -17.20478 10.26324
-60.02974 -16.74594 7.16221
-56.73620 -16.12298 7.16271
-56.21871 -9.56467 7.16234
-58.73694 -4.75393 7.16373
-49.79211 -11.39220 7.16238
-51.02142 -4.32868 10.25940
-59.75160 0.07393 7.16655
-63.81381 -4.21041 7.85969
-63.80330 -10.76905 8.35749
-61.97734 -8.80178 7.16436
-61.85108 -12.90106 10.26192
-60.81325 -6.61474 7.16356
-59.29600 -12.78635 10.26477
-57.79962 -10.69221 7.16384
-57.15373 -7.43904 7.16499
-50.21732 -12.11545 7.16378
-35.15513 -9.68652 10.26229
-59.29362 -1.62881 8.47931
-63.80185 -0.45475 8.87102
-62.98553 -11.48270 7.16182
-62.50373 -17.85207 10.26295
-60.84632 -22.20139 10.26153
-59.68984 -13.16339 10.26262
-56.89776 -14.41895 10.26344
-59.76394 -5.54704 7.16435
-54.48503 -8.58924 7.16157
-54.12216 -6.23496 9.96606
-58.71427 -2.06637 7.77758
-63.80119 -0.72515 8.61094
-62.68394 -9.40829 7.16291
-63.80092 -23.82457 8.27259
-61.40396 -15.58164 10.26514
-60.24540 -12.02210 7.16387
-59.00006 -13.41753 10.25834
-57.42570 -11.25039 7.16203
-57.81577 -6.91319 7.15941
-40.47976 -20.64483 10.26426
-57.55465 -4.94925 7.16319
-53.81417 -2.09106 8.30453
-59.80289 23.32865 10.26199
-63.79534 -6.60860 7.84733
-63.79473 -14.09595 9.20897
-63.79514 -24.28352 7.55564
-61.25640 -10.00801 7.16341
-59.28314 -21.56530 8.22471
-58.99670 -11.17819 7.78182
-53.19457 -21.28519 10.26126
-55.92821 -12.64208 10.26250
-38.81385 -21.10415 9.39182
-55.74292 -6.79846 7.16402
-49.14931 -5.52172 10.26241
-59.25324 -1.40876 8.74686
-63.79052 -6.58813 8.73227
-63.79581 -17.50515 7.20745
-61.77240 -10.39259 7.16092
-61.11136 -10.42647 7.16155
-59.61927 -16.29123 10.26266
-54.28089 -21.65386 8.23989
-52.53804 -21.39268 10.26115
-50.45916 -20.18009 10.26078
-49.21502 -11.85762 10.14322
-52.40408 -5.63713 10.26747
-58.52600 2.98903 9.69684
-63.43300 -10.33005 7.16337
-63.09387 -14.65578 10.25981
-61.51697 -10.79692 7.16334
-60.96720 -10.81278 7.16354
-59.36822 -16.67599 10.26436
-59.24166 -9.08103 7.16360
-49.81929 -26.19026 9.18515
-55.39907 -13.14870 10.26035
-51.73044 -16.23525 10.26282
-56.55721 -6.25624 7.16112
-58.54731 -2.02469 7.97789
-61.64451 5.44995 10.26152
-63.79548 -14.33415 8.08200
-63.50538 -24.07103 10.26250
-61.36997 -13.84660 10.25816
-60.01571 -19.89323 10.26151
-59.05299 -16.17042 8.89716
-57.38117 -13.08032 10.26250
-54.26288 -16.48313 9.53871
-51.99196 -16.27179 7.16175
-59.06809 -7.11444 7.16406
-55.01551 -6.36494 7.16130
-59.24111 -1.38943 7.55373
-63.80060 -12.16564 8.80139
-62.21219 -11.50210 7.16245
-62.56713 -26.19304 8.27575
-59.71318 -20.30274 10.26560
-58.70216 -16.12172 10.02395
-54.79695 -18.45652 7.16199
-54.24590 -16.40576 9.03487
-51.66438 -17.03860 10.26206
-50.66766 -16.15220 10.26164
-59.16090 -6.91274 8.44475
-53.69600 -2.06876 9.77417
-61.80834 3.21427 10.26156
-62.54092 -10.37300 7.16177
-63.79610 -21.27119 9.28100
-62.39041 -24.97799 10.26213
-60.65769 -14.49207 7.16240
-59.08677 -14.48312 10.26412
-52.07249 -22.85225 10.26180
-54.57666 -16.18415 10.26246
-51.40188 -17.27231 10.26304
-54.74014 -11.84988 7.16354
-53.70967 -10.87918 10.26280
-53.13863 -1.88084 10.26388
-62.04703 13.18922 10.26265
-62.28495 -8.64453 7.16259
-62.03783 -10.84117 7.16145
-63.78879 -26.00364 7.56495
-61.60722 -25.35650 10.26208
-60.24048 -15.00567 10.26617
-57.32081 -20.14193 7.16288
-53.95719 -18.84411 7.16205
-53.41446 -15.77302 10.26116
-50.51222 -16.89758 10.26333
-57.18918 -9.27293 7.16387
-34.19406 -20.01663 8.43864
-52.81650 6.21558 10.26118
-63.78552 -7.16761 8.75845
-63.78174 -15.60328 10.12253
-62.11796 -15.01733 7.16229
-61.61754 -18.58865 10.26120
-60.42910 -26.19113 9.63253
-59.95349 -12.61296 7.16354
-56.80268 -20.85650 10.26264
-55.35018 -15.19387 10.26079
-52.92847 -15.81180 10.26401
-54.48610 -12.72774 10.26139
-56.92842 -9.45267 7.16067
-49.24881 -11.70086 7.25654
-38.58976 17.97261 7.33876
-63.75990 -5.45574 7.16239
-63.76846 -14.17077 7.49342
-63.39072 -20.87594 7.16292
-61.46969 -16.97307 10.26245
-60.05870 -21.14559 7.16391
-59.01012 -15.29836 7.16271
-58.66168 -10.23045 7.16417
-48.48215 -21.19311 8.89547
-49.81273 -17.11700 10.26312
-55.66657 -10.58121 7.16299
-52.62367 -10.22625 7.16350
-54.48226 -7.77452 7.16530
-59.47760 5.19283 10.26243
-63.77614 -9.36970 8.87430
-63.45471 -15.23297 10.26326
-61.45188 -13.06111 7.16177
-61.46895 -19.07347 10.26322
-59.03389 -26.18105 7.57901
-56.49282 -14.71218 7.16363
-56.74468 -12.00074 7.16266
-54.23251 -13.33137 10.26128
-49.28971 -16.20911 7.16233
-36.49005 -19.36287 10.26269
-46.45439 -10.74679 7.16191
-48.64764 7.95923 7.58258
-63.75317 -7.38180 8.89942
-63.77202 -14.81050 9.24662
-63.76890 -19.50790 8.13717
-62.56244 -26.18539 8.91468
-60.30578 -17.42424 10.26352
-59.03428 -15.78434 7.16167
-55.53007 -16.34412 10.26156
-54.24151 -16.69025 8.88518
-55.98204 -11.79136 7.16323
-53.64661 -13.20542 10.26272
-56.85544 -9.38338 7.16296
-52.23655 -10.77952 7.16203
-44.24686 -11.47823 9.34818
-49.06464 -6.95191 7.33710
-55.15962 6.75969 10.26561
-63.76242 -5.78546 8.68454
-61.71327 -11.76009 7.16373
-63.77233 -22.61966 9.28727
-60.08470 -11.29779 7.16048
-59.19792 -16.16888 10.25993
-50.83996 -26.16903 9.00250
-52.46271 -19.77729 7.16199
-52.36642 -16.96467 10.26244
-49.47266 -18.07949 10.26234
-54.19060 -11.28867 7.55794
-55.46403 -9.38049 7.16294
-51.44796 -9.50133 7.16250
-34.17252 -8.12527 9.25814
-58.58187 -7.01591 8.07069
-63.76227 -9.46705 8.48255
-61.98609 -19.36593 10.26307
-59.59341 -16.12225 7.16186
-52.63632 -26.15721 7.56736
-49.38766 -26.15547 7.54397
-50.73672 -18.85064 7.16217
-41.49916 -26.16052 10.18485
-54.21257 -11.80396 8.51287
-35.51162 -19.41165 10.26158
-49.84224 -10.49996 10.25941
-50.99288 -8.37736 7.16155
-54.87094 -6.80440 7.16349
-60.78440 -5.01072 7.16341
-63.75997 -11.83685 7.59008
-63.76862 -20.80045 10.12244
-59.30808 -16.36973 10.26354
-56.24303 -17.32794 10.26586
-53.36468 -21.20022 10.26235
-57.36017 -10.95228 7.16429
-55.51799 -12.41699 7.16455
-41.29167 -26.15316 10.17494
-56.92965 -9.15020 7.16225
-51.33607 -11.34573 10.26476
-49.44201 -10.22587 10.26257
-44.92275 -7.98825 7.16249
-38.83163 2.96348 9.92764
-63.76005 -6.94932 8.15148
-60.95046 -10.94200 7.16383
-58.84391 -11.06203 7.97360
-55.57966 -22.07375 10.26139
-53.68525 -21.07790 10.19983
-54.70266 -15.10456 7.16279
-53.67737 -14.41511 7.16310
-48.63223 -18.29195 10.26317
-44.25817 -16.63264 10.02971
-49.26164 -11.59209 9.94842
-52.94894 -8.79046 7.16376
-48.93481 -7.01000 8.08956
-48.94708 -2.00505 9.73316
-61.89495 -7.94095 7.16166
-63.49181 -14.74545 7.16200
-61.37183 -22.22543 10.26244
-56.69322 -17.63659 10.26387
-57.51616 -10.70333 7.16151
-54.80773 -15.33522 7.16218
-53.48839 -14.52947 7.16152
-53.85223 -11.08192 7.81112
-45.78298 -14.00878 7.16227
-34.16206 -15.14446 10.15575
-44.34793 -9.06900 7.16133
-54.22233 -6.46509 7.18810
-50.17571 -2.03334 10.26136
-63.75233 -4.95256 8.62205
-61.47182 -15.88749 10.26422
-57.45559 -16.24278 7.16179
-55.08100 -21.65622 7.16250
-50.71722 -26.16325 8.26311
-50.80416 -19.89062 7.16270
-49.53681 -19.00170 7.16309
-53.54879 -11.12324 8.01704
-34.16978 -19.64142 9.32837
-44.24324 -11.45875 7.65983
-46.29021 -8.23469 10.25989
-44.42173 -2.59290 10.26288
-55.49058 6.86778 10.26386
-63.75811 -13.75814 8.34608
-58.37271 -21.28147 8.14960
-57.17959 -16.33885 7.16109
-55.95714 -19.68691 10.26459
-53.31784 -21.31549 7.16234
-54.00073 -15.56400 10.26748
-50.09176 -19.70389 7.16244
-42.65478 -26.16843 9.17217
-52.90096 -11.07133 7.16184
-50.06093 -10.87736 7.16310
-39.12664 -10.35332 10.26202
-54.24255 -6.68364 7.84458
-58.93219 -2.00971 7.19742
-63.57777 -14.20721 7.16325
-57.91577 -14.00257 7.16304
-56.77834 -22.67843 10.26168
-55.02306 -21.94655 7.16330
-51.12240 -25.81272 10.26181
-48.01823 -24.33506 10.26252
-50.36048 -17.41494 10.26107
-45.73221 -16.50931 10.26059
-52.38858 -10.79926 7.16208
-39.60319 -13.81270 10.26196
-49.23350 -8.73801 7.16306
-48.92471 -2.02369 9.21830
-58.33392 -6.35041 7.94239
-63.77700 -16.53379 7.72922
-57.70565 -16.60261 7.16325
-56.48079 -20.06230 10.26237
-54.13733 -22.47041 10.26362
-54.12060 -16.24006 8.06918
-49.96943 -20.22911 7.16230
-53.65994 -12.79270 7.16140
-34.17034 -24.10111 9.40021
-55.00216 -9.26578 7.16364
-44.18483 -11.84365 8.64102
-45.48044 -9.00178 10.26091
-49.04897 -1.96823 9.93726
-60.21230 -7.27753 7.16321
-59.80733 -16.36404 7.16271
-58.42240 -21.25471 9.52523
-56.71634 -23.02294 10.26442
-54.59792 -22.76969 10.25924
-50.79707 -21.56156 10.26113
-52.27303 -15.25149 7.16149
-48.16570 -19.34981 7.16214
-45.20691 -16.12412 7.16128
-44.08148 -11.94367 7.19997
-34.16997 -8.81114 9.92872
-54.54200 -6.29905 7.16404
-63.77177 -9.13588 9.79188
-58.30567 -11.45337 8.21315
-58.00842 -12.97245 7.16194
-57.46040 -16.94565 7.16228
-56.35186 -22.71779 7.16204
-54.47692 -23.02868 10.26300
-50.85908 -21.42544 7.16257
-52.55010 -15.85090 7.16179
-48.12067 -20.39961 10.26239
-38.98074 -21.13433 9.83142
-51.17897 -10.79206 7.16252
-46.89316 -10.64898 10.26124
-44.23354 -6.44145 7.24751
-54.03508 -2.00268 9.01520
-58.99351 -7.01311 7.22223
-58.27030 -11.46007 7.37116
-57.77795 -14.51839 7.16430
-57.79835 -20.56066 10.26105
-56.39036 -12.42109 7.16359
-54.76223 -20.52564 10.26222
-49.16788 -26.17992 9.58136
-49.35161 -21.01519 7.16273
-47.28329 -16.45214 10.26376
-51.28313 -11.84742 7.16283
-49.18654 -11.82863 9.75103
-39.24712 -11.53146 9.44053
-47.83801 -8.32904 7.16085
-47.09059 -4.55150 10.26311
-55.21747 5.72826 7.16245
-58.48225 -6.95827 8.60913
-58.27541 -11.60876 8.75102
-57.49646 -17.19362 7.16277
-56.94121 -23.54182 10.26401
-55.32407 -17.46977 10.26473
-52.94543 -16.70815 7.16389
-46.95499 -26.17510 8.94530
-48.25802 -15.21960 10.25935
-34.16346 -20.55824 9.21851
-39.23285 -11.63668 8.80939
-38.92931 -7.02479 7.61309
-48.59299 -4.15089 10.26377
-62.95766 -1.22838 10.26439
-63.75249 -10.47401 9.81260
-63.76060 -21.15897 9.72044
-58.32049 -22.95177 7.16217
-56.19138 -17.42555 7.16272
-54.20541 -26.16649 9.43357
-52.64060 -17.06591 10.26034
-45.17365 -19.32447 10.26370
-49.04476 -14.58033 10.26372
-44.23276 -16.44594 9.11595
-42.26937 -15.19162 10.26411
-41.48038 -10.78625 7.16220
-49.60417 -8.36185 7.16422
-45.98370 -1.64297 10.26448
-57.38753 -6.63426 7.16471
-63.75215 -10.48447 10.21686
-63.76680 -18.86712 9.51563
-58.18949 -26.15482 10.05629
-55.02093 -17.69972 10.26056
-52.27571 -18.65839 10.26200
-49.33199 -15.10133 7.16373
-41.26438 -21.94337 10.26189
-43.96872 -17.68524 7.16366
-47.60331 -12.74851 7.16283
-45.18428 -10.13436 10.26442
-43.99967 -6.99425 8.11383
-51.48740 -6.11435 7.16214
-58.31106 -1.82770 7.23785
-63.75806 -9.47595 9.63936
-58.15960 -12.42676 7.16393
-60.24555 -22.29266 7.16257
-54.35467 -26.14893 9.41481
-49.88318 -16.20450 10.26594
-44.91471 -19.29682 7.16175
-43.86514 -18.15851 7.16194
-34.15462 -20.68268 8.32866
-36.69903 -14.92721 10.26321
-40.56332 -9.12573 7.16243
-49.18712 -6.30191 8.68890
-53.47310 -6.95152 8.04448
-58.53662 -6.98807 9.02834
-58.38592 -11.86535 9.20480
-57.56871 -14.31631 7.16250
-53.88864 -16.08112 7.79007
-49.29776 -17.78120 10.26381
-45.09252 -19.83985 7.16244
-45.77051 -17.40302 10.26419
-49.40061 -12.40043 7.16359
-34.14805 -15.65737 9.03471
-35.45827 -10.91757 10.26215
-40.20249 -7.60675 7.16099
-44.92559 -1.64497 10.26286
-56.52479 -6.46571 7.15939
-57.86612 -9.88749 7.16243
-63.76423 -19.59825 9.16545
-55.13462 -11.65545 7.16378
-50.20669 -18.46281 10.26224
-50.97263 -14.31095 7.16364
-48.58529 -15.62521 7.16379
-36.91082 -26.16038 9.18299
-39.14533 -21.02366 10.26347
-49.16561 -11.83307 8.20979
-45.80904 -11.27081 7.16363
-43.95648 -10.06545 10.26441
-39.21717 -6.48995 8.17691
-48.61285 -2.02569 9.64665
-58.60057 2.15153 10.26332
-63.74813 -7.30079 7.74290
-58.50226 -11.97873 9.21040
-59.50578 -15.66498 10.26638
-58.54628 -22.54923 7.16355
-50.18152 -22.95702 7.16359
-49.16631 -21.26158 8.13978
-46.57915 -22.11221 10.26255
-44.36355 -20.62779 10.26225
-43.55058 -19.18070 7.16354
-48.91249 -12.91265 7.16270
-35.85372 -15.98833 10.26048
-45.18374 -10.24591 7.16281
-34.15277 -6.79468 9.63391
-43.50408 -2.60631 10.26019
-54.00415 -6.96406 7.72580
-57.50697 -8.53669 7.16350
-63.18335 -16.07384 10.26518
-58.37263 -16.03600 7.16267
-52.74612 -26.16114 9.40452
-51.48496 -23.84674 10.26252
-51.13365 -17.62795 10.26395
-46.25235 -26.15101 8.23452
-48.38297 -16.16985 7.16248
-43.55347 -20.31461 10.26187
-39.22575 -21.68142 8.90081
-39.45275 -14.47258 10.26187
-39.25708 -11.54557 7.16736
-39.04901 -7.44963 7.16235
-43.76205 -2.04713 7.70676
-53.24908 -6.59806 7.42308
-58.28177 -6.70790 8.79334
-55.46569 -11.11364 7.16480
-63.76327 -24.51044 10.22443
-52.14570 -23.96189 10.26132
-50.12372 -23.21556 7.16241
-50.85336 -14.92746 7.16244
-49.22670 -16.46173 8.62817
-49.96543 -12.89726 7.16243
-36.41179 -26.15002 9.98337
-50.17517 -10.94675 7.16478
-44.50133 -11.07310 7.16165
-38.56351 -8.25192 7.16184
-49.75133 -6.91674 7.16612
-53.10818 1.01077 10.26171
-58.32409 -6.76236 9.50752
-61.85340 -16.81703 10.26068
-53.45647 -19.31893 10.26344
-50.42273 -26.16105 8.21190
-48.98739 -23.06789 7.16305
-50.15877 -14.84593 7.16175
-44.46984 -21.66326 10.26327
-46.10688 -17.09248 10.26045
-43.79311 -17.54295 10.25891
-46.82513 -11.49732 7.16182
-38.22864 -10.34412 7.16358
-46.61824 -7.50162 7.16309
-49.27674 -3.97744 7.16210
-57.95220 -6.42718 7.16312
-59.24861 -14.25808 10.26320
-53.28758 -12.24054 7.16190
-51.10455 -23.52592 7.16206
-50.23289 -17.78308 10.26057
-49.16531 -17.50055 10.26528
-45.72274 -19.49205 10.26107
-42.75458 -20.75023 10.26168
-49.97768 -11.09038 7.16131
-42.53057 -12.71393 10.25971
-34.15207 -10.02659 8.85406
-48.32712 -8.29096 7.16389
-49.73220 -3.55290 7.16117
-63.74829 -5.98732 9.83261
-63.08880 -17.89943 7.16288
-53.39790 -17.67238 7.16159
-50.80025 -19.38186 10.26102
-49.41378 -17.54235 7.16202
-47.54541 -16.80638 7.16074
-39.45741 -26.15473 9.73805
-48.68854 -11.07501 7.48481
-43.67617 -12.85039 10.26247
-42.99244 -10.43027 10.25998
-43.13963 -8.09286 7.16081
-48.69130 -7.03885 8.77025
-53.27735 -6.48444 7.74607
-63.18764 -11.23218 10.26171
-53.49594 -12.42829 7.16455
-53.67194 -19.17370 10.26368
-50.00202 -24.03869 10.25939
-48.30079 -21.01983 10.26686
-45.67151 -19.98969 10.26197
-42.86476 -20.91405 7.16188
-44.03000 -13.89271 7.16315
-38.52461 -15.87028 7.16208
-47.58911 -10.48221 7.16190
-36.95429 -9.92818 7.16295
-45.67986 -6.76786 7.16145
-44.73264 0.87483 10.26159
-53.29389 -6.42389 7.85261
-55.11527 -8.93619 7.16272
-56.81861 -15.54618 7.16110
-57.86931 -22.38492 10.26094
-50.20075 -19.46820 10.26352
-46.47823 -20.56214 10.26227
-44.11252 -21.21240 9.11174
-34.19556 -21.25831 7.55555
-46.75569 -11.64164 7.16269
-46.44288 -10.94146 7.16414
-46.14636 -9.35641 7.16286
-43.88095 -7.03023 9.08094
-50.24970 -6.58474 7.16286
-58.70420 -5.36179 10.26076
-58.07526 -16.19047 10.26381
-55.50347 -16.33542 7.16374
-50.92371 -26.13659 7.62057
-44.98365 -26.14963 8.22283
-44.15303 -22.72529 10.26304
-35.40089 -21.02523 10.26239
-45.33011 -12.53220 7.16300
-34.16952 -16.36286 8.84754
-42.01839 -10.34339 7.16257
-40.42838 -8.15154 10.26558
-39.00271 -1.98927 8.63093
-52.76791 -0.86974 10.26041
-58.63457 -5.95834 10.26308
-52.38860 -11.17484 7.16272
-60.07952 -20.46915 10.26272
-51.55753 -12.98887 7.16471
-48.54215 -16.11678 7.30439
-43.66477 -26.16112 7.59870
-41.37952 -17.57977 10.26357
-43.21228 -14.59385 10.26272
-34.16260 -17.67972 8.22969
-41.73053 -10.52177 7.16163
-44.16016 -8.75971 7.16248
-42.08887 -3.30044 10.26086
-54.02509 -1.97753 10.13685
-62.18046 -7.41414 10.26393
-58.45593 -16.93435 8.11328
-57.94457 -21.24396 7.16204
-53.14589 -19.02612 10.26278
-49.11996 -15.47634 7.16149
-43.58692 -16.10966 7.75323
-42.26733 -16.18068 10.26497
-42.79147 -14.26533 7.16249
-34.15573 -17.15940 7.60774
-47.11776 -9.92045 7.16492
-41.27128 -9.31797 7.16203
-43.79259 -7.04748 8.25482
-53.29426 -1.68144 7.47139
-63.63719 -3.92433 10.26137
-63.76676 -21.53114 8.24082
-58.88651 -20.88226 10.26340
-53.34123 -23.21117 7.16316
-38.26104 -26.16575 8.96896
-38.93958 -21.09619 7.63937
-38.94286 -19.16809 7.16240
-45.71378 -12.31680 7.16453
-41.89395 -13.87106 10.26451
-45.70282 -10.28728 7.16474
-43.35085 -9.15235 7.16299
-45.76471 -8.29661 7.16278
-47.54965 -6.07428 7.16373
-51.78366 -7.15438 7.16314
-61.11729 -10.11151 10.26129
-60.00697 -18.72242 7.16192
-53.29199 -16.45114 9.20832
-54.08548 -26.15414 8.21793
-42.64220 -22.29116 7.16189
-46.28147 -13.30155 7.16303
-38.53897 -19.93039 10.26445
-37.71400 -18.21073 7.16298
-34.16300 -17.50150 7.61839
-37.11470 -11.30141 10.26267
-40.50847 -8.45448 7.16077
-43.66437 -7.03126 9.27921
-48.40608 -6.88349 7.77452
-62.06999 -3.45862 7.16265
-56.17155 -13.99873 10.26211
-55.79959 -16.73411 10.26239
-55.87784 -22.44843 10.26304
-48.27596 -11.42095 7.74173
-43.79979 -26.14979 8.21665
-45.23754 -17.36140 7.16318
-44.23835 -16.63598 10.16431
-40.23964 -18.17542 10.26434
-43.75889 -13.12952 7.16499
-41.09792 -13.57146 7.16263
-39.16310 -11.84479 8.42644
-42.53295 -9.43641 7.16229
-38.79815 -7.04776 8.80241
-38.57663 2.97992 9.31687
-54.83440 -1.40592 10.26318
-57.33862 -8.23199 10.26486
-55.93490 -13.76267 10.26508
-54.29158 -15.87156 10.26165
-52.38243 -17.25931 10.26360
-47.25048 -24.31241 10.26154
-45.74811 -23.63192 7.16302
-45.64549 -17.89853 10.26399
-44.28551 -17.10991 7.16506
-42.73419 -16.10424 7.16276
-37.55171 -19.79755 10.26350
-38.76450 -16.05674 7.71309
-34.15973 -13.83702 10.24825
-39.50336 -10.07556 10.26251
-43.60422 -8.54777 7.16200
-43.64689 -7.03805 7.27155
-43.96379 -1.99511 8.36791
-55.50542 -4.62271 10.25945
-53.29605 -11.38626 9.03105
-58.43636 -19.18917 7.16327
-48.47263 -16.15878 9.69103
-45.78470 -24.23816 10.26226
-43.95432 -23.86731 10.26309
-42.83584 -20.55178 10.26291
-40.60443 -19.20969 10.25998
-34.16189 -23.67863 9.63484
-44.88158 -12.01858 7.16469
-34.15709 -14.29170 9.69288
-35.77026 -9.66448 10.26169
-41.99516 -7.76460 7.16259
-45.51052 -3.89803 7.16225
-58.28663 -1.65014 9.98752
-59.51607 -9.58782 10.25990
-52.32532 -13.28354 7.16203
-51.07448 -19.09856 10.26396
-46.84688 -21.65698 10.26277
-44.68955 -23.64614 7.16317
-45.31656 -15.31901 7.16322
-39.91324 -21.77337 7.16329
-40.02193 -19.12017 10.26246
-34.15396 -23.30417 7.58080
-40.85233 -15.06364 7.16419
-35.95326 -13.33309 10.26346
-38.72171 -8.72119 10.26285
-44.46814 -8.31143 7.16610
-41.57988 -3.08187 10.26092
-53.36273 -1.84549 10.16339
-57.59301 -8.85570 10.26251
-55.56061 -15.15273 10.25855
-51.95565 -20.66180 10.26298
-45.81640 -23.93226 7.16110
-45.96575 -13.31773 7.16512
-39.70663 -22.50535 10.26252
-38.23191 -20.93518 7.16241
-44.35884 -12.39023 7.16398
-38.92869 -16.11665 7.73251
-34.15607 -13.81993 9.09986
-34.14200 -9.03870 8.59077
-36.11939 -4.46248 10.26203
-43.76049 -2.05776 8.34579
-60.92596 -4.39320 10.26298
-63.70593 -18.27999 10.26189
-57.47288 -26.16501 9.64181
-48.86315 -19.57000 10.26052
-45.59643 -18.19383 7.16102
-44.38921 -17.92625 7.16369
-38.01346 -26.15700 8.23909
-34.72010 -26.15117 8.98076
-38.55118 -18.62413 10.26203
-43.64206 -10.93720 7.16084
-40.67524 -11.01725 7.16255
-40.68286 -8.28826 7.16348
-42.83189 -6.82207 7.16237
-49.55548 -1.57783 7.16264
-56.79731 -9.10266 10.26225
-48.17073 -11.71599 7.16216
-52.86215 -19.78281 10.26163
-46.37431 -15.79018 7.16390
-44.73854 -15.61248 7.16302
-39.13370 -22.69869 10.26228
-37.12326 -21.38733 10.26328
-43.62053 -11.09661 8.06964
-38.06851 -12.84336 10.26056
-41.52320 -9.55660 7.16695
-40.57971 -7.37785 7.16367
-44.77325 2.30071 10.26057
-53.41961 -6.21347 10.05123
-53.85721 -13.24201 10.26208
-51.53431 -16.15463 7.16151
-52.81719 -22.24130 7.16234
-45.64046 -24.05677 7.16223
-44.55034 -15.69393 7.16309
-41.44304 -18.90959 10.26602
-37.43677 -21.33979 7.16231
-34.16196 -15.48563 7.68652
-34.14966 -11.73409 7.29235
-41.10396 -9.33190 7.16213
-38.42598 -5.36444 7.16208
-48.05856 0.20632 10.26135
-63.75925 -0.65362 7.56322
-63.75397 -15.17670 7.58038
-58.62073 -23.60631 10.26294
-52.05937 -19.84992 10.26236
-45.23194 -24.57053 10.26177
-39.67498 -26.15012 10.04826
-41.66098 -17.64363 10.25840
-38.03268 -14.46063 10.26445
-42.40292 -10.91966 7.16397
-36.85352 -9.82521 7.16321
-41.69184 -8.74879 7.16125
-40.80833 -5.76458 7.16441
-53.57002 2.65666 10.26353
-60.25221 -9.21408 10.26267
-60.86662 -20.47932 10.26066
-57.44483 -24.32458 10.26190
-48.59308 -17.79305 10.26375
-44.60328 -18.35920 7.16231
-43.37908 -14.22145 7.16342
-34.15892 -18.16595 8.15341
-37.55991 -13.98807 7.16381
-34.17062 -11.85741 8.10674
-41.18183 -9.53740 7.16461
-41.34906 -8.58095 7.16158
-40.12535 -6.13628 7.16373
-36.79633 2.52502 10.25863
-48.30194 -6.69267 9.11953
-63.75749 -21.28374 9.08275
-54.31113 -20.36467 7.16299
-50.67762 -22.78449 7.16348
-44.19054 -18.57308 10.26409
-40.14759 -13.95917 7.16450
-34.14146 -16.48889 7.26246
-40.98879 -11.07004 7.16598
-35.91248 -10.67774 10.25975
-39.98620 -8.83793 7.16315
-35.91142 -1.44502 10.26204
-45.75799 4.97127 10.26222
-53.39037 -6.86778 10.04861
-53.31268 -16.71101 7.71465
-53.71985 -20.55593 7.16268
-49.52513 -20.67961 10.26189
-45.05838 -24.12472 7.16313
-37.32106 -19.74861 10.26303
-36.88616 -16.86965 10.26153
-34.16984 -16.48497 9.39424
-40.54915 -11.02287 7.16319
-34.15559 -8.45883 9.52271
-41.15360 -7.45983 7.16081
-48.55698 8.00531 7.59349
-58.48723 -11.13935 10.24647
-53.45042 -17.10922 10.26230
-48.25894 -17.14682 7.16389
-47.20035 -23.72357 7.16369
-37.40815 -22.63732 7.16265
-35.79698 -22.28537 10.26231
-34.15596 -19.43415 10.07333
-36.57615 -14.42771 7.16271
-34.16150 -12.02590 9.48295
-35.32041 -8.66084 7.16360
-38.66766 -7.03424 7.19515
-39.11298 -1.88682 10.04233
-48.46448 -6.16346 7.81062
-46.10533 -10.55063 7.16536
-50.68267 -16.91299 10.26097
-44.77384 -12.24575 7.16520
-40.51641 -26.13914 9.95077
-40.39224 -19.51823 10.26225
-39.03107 -18.98064 10.26139
-38.45357 -16.17462 8.05481
-37.22676 -15.74634 7.16350
-36.26395 -14.54188 7.16361
-37.33693 -10.51978 7.16265
-35.16576 -7.44227 7.16327
-39.83711 -4.85515 7.16398
-44.83826 -6.88982 7.16459
-55.02813 -11.09880 10.26358
-58.46779 -21.94525 8.94420
-43.27284 -21.49835 8.11829
-41.50884 -18.25621 7.16218
-38.86423 -24.02037 10.26076
-38.00432 -20.77893 10.26022
-34.20413 -21.10298 7.16299
-34.14881 -18.61629 8.56928
-34.41682 -15.26803 10.26594
-40.20716 -9.82069 7.16296
-38.59183 -8.08677 7.16367
-41.16350 -6.41325 7.16483
-55.66680 13.90089 10.26376
-61.98706 -7.39101 10.26234
-49.77500 -14.81897 10.26108
-46.74178 -23.51829 7.16251
-40.92655 -21.74100 10.26089
-39.55656 -17.99611 10.26091
-39.29438 -14.93320 7.16250
-39.43460 -13.30301 7.16390
-35.71462 -14.90675 7.16293
-37.88418 -10.34061 7.16097
-34.98604 -5.84692 7.16342
-40.82926 0.22985 10.26190
-48.47042 -6.95183 9.65897
-44.75387 -10.95298 7.16048
-48.30133 -21.70888 9.55979
-42.77918 -15.87824 7.16138
-39.44473 -23.83704 7.16342
-37.21132 -23.21116 7.16326
-34.16289 -22.78000 9.25191
-34.15694 -19.02782 8.98686
-39.09421 -12.08421 7.16163
-36.10336 -10.38130 7.16159
-38.16649 -7.30718 7.16473
-38.45951 3.06264 7.21263
-52.05371 -7.23805 10.26260
-50.36976 -21.86036 10.26241
-45.29522 -17.62964 7.16116
-40.44678 -18.26425 7.16138
-39.87463 -15.57435 7.16287
-34.15859 -23.18050 8.72351
-34.15139 -19.22709 8.12664
-37.01937 -13.59053 7.16262
-34.16872 -9.42200 8.04716
-34.15485 -3.64717 8.42667
-39.23174 3.32205 9.55081
-48.38825 -6.86858 9.84292
-43.37079 -11.25406 8.57905
-52.45528 -25.36387 10.26368
-42.54971 -12.78956 7.16428
-39.33069 -24.43207 10.26190
-38.85152 -15.33025 7.16192
-34.16469 -22.44869 8.16940
-35.87764 -16.57959 10.26504
-34.16151 -12.55213 9.70375
-36.77520 -8.69875 7.16368
-34.52060 3.39189 10.26280
-53.27064 -1.73113 7.16221
-45.35201 -11.57078 7.16473
-54.49343 -26.15553 9.77422
-42.04005 -12.83307 7.16096
-41.09401 -14.47836 7.16432
-39.26037 -14.15182 7.16449
-36.26775 -18.77607 10.26668
-37.23194 -14.56841 7.16353
-35.23470 -11.85253 7.16167
-37.33563 -8.48228 7.16264
-38.72948 -7.05191 7.48214
-45.53095 -2.24427 10.26346
-45.72549 -9.66032 7.16338
-43.35797 -11.83615 8.21842
-49.88547 -20.63119 7.16372
-45.53485 -18.61564 10.26157
-40.31344 -18.32342 7.16256
-34.16311 -25.28665 8.20817
-36.33330 -17.20136 7.16254
-34.16471 -13.66346 8.30837
-37.81768 -10.01050 7.16894
-35.11570 -7.03258 7.16469
-38.63501 -2.02358 9.17335
-48.46051 -6.93101 10.15413
-43.62449 -11.09323 8.90662
-57.59548 -26.14958 9.16925
-45.02430 -16.82568 7.16230
-43.15753 -17.96656 10.26195
-39.60736 -14.42665 7.16395
-37.19090 -17.77896 7.16256
-37.97214 -11.43028 7.16620
-34.51688 -12.03487 7.16277
-34.12958 -9.01433 7.16554
-34.13174 -3.25318 7.75885
-43.27786 -1.61187 9.60166
-48.27012 -11.90264 10.26367
-49.28777 -20.45758 7.16242
-47.44168 -26.13981 10.13982
-41.90295 -23.91688 7.16179
-34.15489 -15.73199 8.05770
-34.34730 -12.52307 7.16321
-36.86680 -8.27674 7.16398
-38.53740 -6.99323 8.38757
-49.13130 -12.59708 10.26348
-49.06534 -20.26448 7.16291
-42.05857 -15.20061 7.16300
-41.58718 -21.56714 10.25955
-34.15773 -14.71413 9.05920
-34.72860 -8.73027 7.16210
-37.82200 -6.86375 7.16620
-57.80756 -4.60284 10.26215
-49.37967 -15.95107 10.26294
-44.34912 -16.46151 7.16283
-42.43278 -17.80877 10.26287
-35.17008 -17.42591 7.16193
-35.08418 -14.42484 7.16282
-35.77790 -10.11685 7.16156
-36.89179 -5.49080 7.16197
-43.39492 -1.87895 9.66217
-53.27956 -16.54250 8.75280
-47.95564 -17.63520 10.26112
-36.48133 -18.12357 7.16266
-34.16967 -19.39512 9.59214
-35.69435 -13.46352 7.16423
-35.06029 -8.63782 7.16254
-48.96051 0.90865 10.26229
-53.35180 -16.84185 8.19929
-41.17782 -12.72370 7.16439
-36.36011 -21.87791 10.26317
-34.21321 -23.66579 7.16320
-36.71147 -12.71368 7.16338
-34.16482 -11.64468 7.99465
-38.30920 -6.72770 7.74312
-43.56681 -11.13410 9.37247
-48.96974 -19.59896 7.16323
-37.77627 -18.91257 10.26239
-35.45518 -24.21416 7.16368
-34.17083 -21.66665 9.41176
-34.16418 -17.26481 10.10517
-34.16539 -12.63386 7.99688
-37.80449 -5.43088 7.16212
-56.64438 -5.05618 10.26120
-38.72252 -13.53074 7.16289
-37.57361 -22.44302 10.26201
-36.05841 -22.30422 10.26304
-35.50420 -18.77726 10.26055
-36.35628 -12.66765 7.16413
-34.80964 -8.12005 7.16241
-41.51678 -2.36167 10.26204
-43.71853 -12.08530 7.16268
-41.93266 -24.29185 7.16229
-37.68073 -19.15313 7.16217
-37.34351 -13.78774 7.16149
-34.83874 -22.26518 10.26100
-34.37836 -18.43444 7.16318
-35.37874 -11.98062 7.16258
-39.24953 -8.16181 7.16233
-39.20783 -13.63653 7.16265
-38.97971 -16.13221 7.81748
-37.74184 -25.59673 10.26301
-35.61403 -25.44253 10.26149
-34.19064 -22.72389 9.44351
-34.46356 -15.96245 7.16415
-36.84213 -8.08931 7.16251
-42.73858 -3.62303 10.25957
-47.95671 -26.16760 10.17171
-41.38901 -20.40705 10.26127
-38.19379 -25.79275 10.26307
-35.73781 -26.16563 8.18139
-34.18835 -23.49306 9.96913
-35.89047 -13.72873 7.16637
-34.19708 -7.94025 7.99345
-40.37773 -5.52701 7.16240
-38.49260 -11.95487 8.15123
-46.05060 -22.73485 7.16178
-40.61013 -19.21227 7.16192
-37.81785 -23.25735 10.26170
-35.65103 -23.11292 10.26224
-34.70287 -19.28272 7.16314
-34.19710 -14.28480 7.83441
-37.58450 -2.60647 7.16330
-38.56081 -12.01237 7.93474
-45.04178 -20.86290 10.26274
-40.02232 -16.99541 7.16116
-38.64802 -19.90552 7.16297
-36.82097 -25.72065 7.16247
-35.72605 -19.79879 7.16210
-34.98749 -16.97607 7.16101
-34.68031 3.15028 10.26123
-45.30093 -15.69910 10.26274
-45.55708 -20.64882 10.26190
-38.97476 -14.52112 7.16398
-37.96388 -14.37808 7.16203
-36.29945 -26.17585 8.16951
-35.41213 -21.55265 10.26358
-36.52775 -14.20762 7.16437
-34.19056 -14.82789 7.83283
-41.11413 -3.58877 10.26377
-58.53471 -21.99358 9.13168
-50.52970 -25.96827 10.26222
-43.36433 -21.80222 10.14564
-38.49589 -17.90871 7.16487
-36.84372 -20.61976 10.26568
-36.09085 -17.81977 7.16123
-35.09882 -15.91114 7.16264
-36.85645 -9.16676 7.16165
-63.81266 -15.56038 8.37266
-43.43373 -16.30627 8.03692
-46.34613 -23.62294 7.16306
-44.17115 -25.00174 7.16289
-38.50250 -21.23888 7.75628
-36.45485 -26.18647 7.66996
-35.54188 -20.58668 7.16144
-34.20684 -18.29287 8.52297
-35.24768 -4.00204 7.16258
-43.97845 -4.26805 10.26416
-58.34307 -21.71300 9.88440
-47.34050 -23.92450 10.26226
-43.21088 -23.40204 10.26189
-37.75051 -21.23715 7.16236
-34.20713 -25.53232 8.14741
-34.21717 -17.67151 7.16255
-42.42685 -1.51206 10.26355
-51.58636 -16.56672 7.16294
-44.10124 -19.01248 10.26306
-42.03372 -20.41258 7.16319
-38.18939 -19.08985 7.16349
-36.07073 -21.42283 7.16273
-34.20171 -20.03851 7.77664
-38.37564 -1.84279 8.49932
-63.79703 -16.16362 8.37274
-43.47456 -16.95095 9.49181
-40.68605 -16.98766 7.16356
-38.79632 -19.33079 7.16406
-36.79046 -21.85833 7.16319
-34.26198 -21.19584 7.16313
-34.55531 -8.07180 7.16334
-48.82036 -3.55431 10.26280
-43.42706 -16.27924 9.61009
-51.33664 -26.19963 9.53404
-44.25831 -23.83372 10.26158
-37.25084 -25.80250 10.26041
-34.19568 -24.11447 8.10399
-34.19983 -14.98869 8.49257
-38.61317 -12.04299 8.43750
-47.71343 -12.45471 10.26032
-44.92578 -18.54315 7.16302
-47.43716 -24.50194 7.16286
-38.37655 -22.66056 7.16372
-34.97758 -26.19413 8.99234
-34.19386 -19.59085 8.24982
-38.38726 -6.88175 9.86950
-43.51854 -12.01307 9.60658
-43.39181 -16.87406 9.61802
-41.15741 -17.52453 7.16228
-40.10740 -22.71052 7.16132
-38.29111 -23.07512 7.16200
-35.94923 -23.16087 10.26301
-34.19512 -20.81265 8.03726
-38.02079 -11.31275 7.16189
-46.17962 -13.58295 10.25857
-44.41090 -19.84403 7.16389
-39.00343 -19.36672 7.16481
-38.26086 -26.18083 8.11024
-35.39400 -26.21702 7.71282
-34.18937 -22.69028 8.35388
-35.74687 -6.49769 7.16361
-45.55954 -6.02878 10.26071
-56.44404 -13.20119 10.26227
-43.04441 -23.71806 10.26116
-40.79592 -23.14369 7.16383
-38.45483 -24.00882 10.26229
-36.56551 -24.04573 10.26077
-35.60767 -21.17135 7.16466
-34.29606 -20.61656 7.16462
-37.52818 -12.52051 7.16273
-48.51410 -11.99789 8.11809
-41.28403 -20.29192 7.16265
-44.39875 -26.22249 7.69116
-40.57272 -23.60623 7.16342
-37.58693 -21.80514 7.16416
-34.55833 -25.53637 10.26358
-34.19715 -17.49428 7.85237
-38.76464 -12.08901 8.96856
-51.78461 -12.79225 10.26520
-40.87892 -19.01734 7.16271
-42.83129 -22.50356 7.16382
-41.73286 -23.35345 7.16196
-38.13191 -19.82688 7.16217
-37.34821 -24.85424 10.26311
-34.51817 -21.59938 7.16355
-38.44686 -7.42618 10.26086
-49.00416 -13.70877 10.26395
-49.35197 -23.87146 7.16271
-47.71555 -26.19390 8.66829
-40.13695 -20.10418 7.16387
-41.73413 -23.91115 10.26020
-38.93866 -24.87008 7.16343
-37.10241 -25.27586 10.26417
-35.55367 -19.39113 7.16149
-37.76919 -4.44638 10.26187
-45.02066 -12.83374 10.26202
-50.55924 -21.46121 7.16290
-40.80972 -19.69321 7.16285
-43.31430 -22.66258 7.16442
-41.80975 -23.98152 7.16367
-38.59003 -25.52964 10.26599
-35.50216 -26.19802 9.74373
-35.38346 -20.40128 7.16577
-35.90862 -10.86356 7.16125
-63.72973 -17.29598 10.26135
-44.78169 -21.10625 10.26056
-43.67851 -22.82762 10.25899
-43.44612 -26.19373 7.72081
-38.34170 -23.24341 7.16219
-36.61905 -26.06527 10.26462
-34.19439 -23.51760 8.03216
-37.22914 -2.46903 10.26295
-38.77703 -17.09183 7.74823
-50.59278 -23.16577 10.26238
-46.69865 -24.63359 10.26198
-41.18043 -21.96371 7.16358
-38.57821 -23.55729 7.16168
-36.94906 -23.79732 7.16397
-34.28085 -23.24583 7.16441
-37.80566 -14.59499 7.16289
-53.74567 -17.08210 7.61808
-42.20008 -20.85415 7.16101
-46.60578 -25.02262 10.25990
-38.70679 -20.67646 7.16158
-37.85026 -24.09982 7.16288
-34.92194 -22.46193 7.16426
-38.36228 -11.85790 9.63959
-48.10545 -14.03659 10.26149
-48.52642 -22.00251 8.13026
-44.24546 -22.85512 10.26357
-44.53027 -26.19210 8.87880
-39.11620 -26.18276 7.77271
-35.27286 -26.21665 10.01868
-34.19219 -21.63141 8.98339
-41.05173 -10.90133 10.26339
-41.16373 -17.05403 7.16325
-50.01933 -25.08235 10.26124
-40.24294 -21.87868 7.16147
-39.25503 -24.38796 7.16067
-36.23143 -22.72500 7.16302
-34.19190 -22.70988 8.62766
-41.23021 -11.47223 10.25918
-41.08289 -17.44754 7.16280
-49.61458 -25.04615 7.16197
-38.44056 -21.26221 7.16499
-39.25731 -24.70990 7.16415
-36.14213 -22.50171 7.16439
-34.19757 -18.14551 7.86943
-38.46310 -16.94676 8.73322
-44.91565 -17.57931 7.16092
-50.26452 -24.89087 10.26140
-38.32632 -21.69943 7.96282
-37.83405 -23.24789 7.16400
-35.17786 -23.34360 7.16151
-38.32896 -6.73597 9.51932
-44.60602 -13.67966 10.26037
-48.36899 -20.93401 10.26399
-39.82628 -23.26256 7.16110
-40.49189 -26.19459 8.30286
-35.84353 -23.88620 7.16545
-34.98153 6.75177 10.26252
-38.49020 -16.98866 8.92392
-58.74493 -12.07592 9.99735
-38.44767 -21.95859 7.39297
-40.44360 -24.88920 7.16291
-38.30647 -26.21664 7.16223
-34.82401 -23.39577 7.16240
-37.40752 -16.77997 7.16289
-43.62482 -17.04690 10.09670
-50.52407 -19.68545 7.16349
-39.30830 -23.07684 7.16220
-38.82021 -24.77936 7.16151
-34.18782 -25.84315 9.34964
-44.17384 -1.89077 8.27304
-44.23146 -17.47232 10.26293
-47.43376 -25.30090 10.26085
-38.57192 -23.29994 7.16544
-37.62792 -24.77668 7.16387
-34.22325 -26.19558 8.74939
-38.28600 -11.31925 10.26352
-53.12662 -12.62233 10.26187
-54.87320 -24.73654 10.26303
-44.07631 -25.03082 10.26193
-40.44145 -25.84671 7.16293
-34.64993 -25.26368 7.16465
-37.02888 -17.02428 7.16301
-43.46799 -16.98261 8.37575
-58.75909 -17.08137 9.94544
-50.54288 -24.93084 10.26390
-43.81561 -25.96505 10.26175
-38.52109 -26.18059 7.82884
-36.27275 -17.28716 7.16430
-44.93999 -13.87547 10.26417
-55.19542 -22.94811 10.26288
-42.02454 -23.67713 7.16335
-41.38041 -25.31011 7.16283
-35.95645 -26.11902 7.16329
-34.70271 -13.60100 10.26300
-39.23397 -16.83093 8.68492
-53.79042 -12.06854 9.70186
-48.23722 -23.04277 10.26242
-47.87483 -25.40404 10.26277
-41.30330 -25.72327 7.16276
-34.77608 -19.46575 7.16561
-48.04875 -14.36808 7.16286
-45.91386 -25.49581 10.25855
-34.99756 -12.34378 10.26117
-42.33761 -22.10563 7.16291
-46.46313 -23.41529 10.26057
-48.04589 -25.51618 10.26358
-39.49166 -24.71448 7.16529
-34.22069 -19.87922 8.56926
-43.79252 -9.68167 10.26254
-40.39925 -22.68195 7.16305
-51.43684 -26.16472 8.71659
-40.20288 -25.60189 7.16472
-34.23073 -21.14347 8.24967
-44.05396 -12.00753 9.97258
-42.94682 -22.88349 7.16171
-40.62775 -23.46590 7.16195
-42.18530 -25.73186 7.16182
-34.25809 -22.84244 7.59902
-34.24371 -18.24519 7.64080
-39.33124 -11.57991 9.73060
-43.38660 -21.70008 7.56525
-47.33644 -22.97004 10.26080
-49.03080 -25.35000 10.26521
-41.91448 -26.17465 9.02670
-34.25548 -22.52043 7.65584
-35.06195 -11.08064 10.26087
-39.06608 -22.01177 8.40421
-53.37896 -21.80074 9.90910
-46.24538 -24.11439 10.26488
-43.32244 -25.11685 7.16251
-34.23320 -25.80154 9.04283
-35.39576 -17.44281 7.16385
-38.44805 -21.86194 7.60254
-43.36542 -21.55089 7.16928
-46.09344 -22.85966 7.16335
-52.07308 -25.42645 7.16173
-40.53229 -25.23354 7.16392
-34.23457 -19.18100 8.20446
-44.22359 2.74504 10.26403
-45.73818 -19.91074 7.16204
-48.37027 -21.65119 9.21952
-52.53643 -24.08167 7.16312
-46.48238 -25.85152 7.16427
-34.25057 -23.53032 8.97930
-35.56045 -13.76339 10.25897
-48.45654 -12.81658 10.26367
-48.47302 -21.89118 7.36946
-44.67772 -23.75459 7.16259
-42.35793 -24.51666 7.16087
-34.43778 -26.07728 7.16453
-46.95683 -6.57379 10.26112
-45.58345 -18.82373 7.16279
-44.41318 -22.02035 7.16414
-63.83912 -23.94809 10.09209
-44.96992 -24.93424 7.16326
-41.68707 -25.66473 7.16552
-34.24193 -19.10212 9.47150
-41.01217 -15.41662 10.26602
-42.90844 -21.36854 7.16367
-48.59757 -22.00958 9.12335
-44.05677 -24.26573 7.16220
-51.99648 -26.16787 8.13799
-41.02187 -26.16895 7.86699
-34.24011 -14.79668 8.09836
-43.01946 -19.24810 7.16448
-43.62118 -22.10904 7.16256
-48.71645 -22.03141 10.13574
-45.79368 -24.20404 7.16607
-45.78135 -24.86301 7.16324
-43.75777 -26.16226 8.30767
-34.25735 -16.37036 7.41345
-41.21011 -14.14305 10.26182
-46.24345 -18.67259 7.16409
-48.36263 -21.63862 8.70354
-51.74915 -23.33496 10.26083
-46.18874 -24.82352 7.16324
-46.45248 -26.15575 8.96292
-34.25241 -21.88964 9.37205
-38.67935 -17.01801 9.89463
-43.36514 -19.09826 7.16214
-47.74877 -20.40779 7.16372
-50.15789 -22.62998 10.26602
-63.83600 -24.74474 9.13627
-48.87757 -26.16258 7.16360
-34.27141 -24.38075 7.36874
-39.30033 -21.41130 8.52636
-42.56105 -21.06123 7.16366
-48.02009 -20.17807 7.16235
-53.55116 -21.94977 8.60841
-60.00516 -24.72442 10.25926
-49.01413 -26.16075 10.13902
-34.25108 -19.62100 9.50354
-42.81960 -15.82735 10.26208
-46.15201 -21.23281 7.16195
-48.56427 -21.95933 8.33464
-49.63984 -23.59172 10.26433
-49.82770 -25.36080 7.16335
-34.27173 -25.91299 7.28557
-34.24076 -9.65145 9.34696
-42.67954 -21.48446 7.16167
-52.72910 -15.78324 7.16200
-48.37220 -21.62817 7.51484
-53.18785 -22.27288 10.26167
-60.82880 -24.49206 10.26148
-46.32347 -25.50606 7.16452
-34.24601 -22.35525 9.99261
-40.24006 -12.50935 10.26003
-54.01151 -12.01657 9.44631
-54.10956 -17.35412 7.16310
-58.40101 -21.76254 9.39343
-63.84315 -25.33093 9.05295
-46.69987 -25.73148 7.16187
-34.23731 -19.33636 9.74823
-40.64153 -12.57566 10.25813
-49.02546 -17.00710 9.17022
-45.33855 -22.44623 7.16377
-53.64384 -22.01505 8.94695
-45.31118 -24.65404 7.16126
-50.25967 -26.15988 7.77532
-34.24801 -23.63296 10.14156
-38.45008 -16.84722 9.93453
-45.45151 -20.88742 7.16241
-47.63872 -21.26763 7.16170
-48.39115 -22.97374 7.16344
-56.80678 -23.83018 7.16242
-57.16425 -25.94643 7.16278
-34.24464 -24.11298 10.23931
-39.88243 -14.94205 10.26360
-45.41832 -21.71504 7.16125
-48.20731 -21.60852 7.16249
-53.80163 -22.06142 8.89343
-57.21039 -23.88589 7.16235
-48.03293 -25.05608 7.16261
-46.57851 -26.15416 7.85115
-38.17250 -17.61209 10.26214
-45.53814 -20.53181 7.16272
-58.47331 -11.88244 8.95506
-49.14684 -22.86856 7.16122
-48.02073 -24.28914 7.16348
-52.47722 -24.91367 10.26388
-52.17937 -26.14056 7.16226
-41.05163 -25.62082 7.16555
-34.99027 -16.38549 10.26350
-42.71294 -20.12883 7.16453
-45.53796 -22.07058 7.16349
-53.88462 -17.04833 8.58296
-53.45986 -21.86570 7.73603
-62.72053 -22.69377 10.26154
-63.85351 -25.12863 8.94801
-52.59165 -26.00293 7.16370
-38.33134 -22.77344 7.16308
-44.76779 -16.20795 7.16283
-49.01080 -17.00331 10.03488
-58.76564 -17.02992 8.20326
-58.04392 -21.45118 7.16297
-52.68745 -24.46401 7.16271
-49.22627 -25.21887 7.16448
-46.25658 -26.16206 7.95221
-34.23921 -12.07626 9.92262
-48.62318 -11.99562 9.56516
-46.01075 -22.42269 7.16283
-51.96435 -20.50803 7.16213
-52.72846 -22.36024 7.16439
-59.30487 -23.72705 10.26202
-47.70705 -25.11622 7.16185
-36.17809 -24.10444 10.26330
-37.71717 -17.64587 10.26014
-47.39496 -16.58886 7.16301
-48.18613 -19.63047 7.16181
-58.04504 -19.04436 7.16271
-53.44323 -23.73355 7.16190
-55.50155 -24.83427 10.26389
-48.49125 -25.52954 7.16444
-38.65706 -17.16826 10.25965
-48.25129 -15.10764 10.25992
-53.73335 -12.01226 9.79792
-48.71182 -22.96380 7.16129
-63.83682 -21.11873 9.56623
-55.47485 -24.28531 10.26120
-54.24275 -25.93322 7.16255
-35.57690 -24.03044 10.26461
-44.29886 -21.72217 8.83630
-48.45634 -16.84615 9.25454
-50.84441 -21.52927 7.16463
-57.30112 -21.42487 10.26067
-48.97233 -24.62001 7.16235
-54.67778 -25.49107 7.16375
-34.26037 -24.98137 7.70673
-34.73399 -15.40844 10.26124
-47.33611 -20.27937 7.16163
-50.86382 -21.01452 7.16401
-63.85482 -18.92088 7.58746
-63.84506 -23.27565 8.84560
-56.68557 -25.44379 10.26030
-37.80865 -25.76179 10.26344
-43.61068 -21.98441 8.86642
-48.40299 -19.07181 7.16323
-50.98352 -20.69835 7.16292
-49.90650 -23.03441 7.16508
-60.67066 -22.58386 7.16269
-50.79367 -24.96912 7.16412
-53.18614 -26.15348 9.15185
-37.21271 -21.92260 10.26260
-45.53047 -20.37134 7.16298
-48.91527 -19.10275 7.16209
-55.41839 -16.30537 10.26093
-58.96708 -17.08597 7.16223
-63.85555 -22.13457 8.81164
-50.16208 -24.93300 7.15822
-55.82507 -26.11235 7.16351
-38.59839 -25.27642 10.25946
-34.23903 -8.05390 9.78157
-49.12171 -16.95138 9.49424
-49.50247 -22.44369 7.16189
-52.40820 -21.46096 7.16338
-55.79873 -22.54205 10.26435
-55.89912 -24.41969 7.16386
-62.07610 -26.14754 7.66205
-39.00647 -25.56380 10.26300
-44.33275 -16.58881 8.38310
-49.43007 -22.07265 7.16312
-63.84954 -9.10849 9.88532
-53.54338 -21.92280 8.02718
-51.55391 -24.23140 7.16347
-56.72251 -24.80259 7.16325
-58.78127 -26.14997 8.10046
-39.37577 -24.88180 10.26406
-43.94644 -13.49076 10.26016
-51.31240 -19.57683 7.16384
-51.41575 -21.36799 7.16290
-63.84626 -17.56326 10.03672
-51.91137 -23.97645 7.16452
-60.21922 -24.15016 10.26350
-58.69157 -25.67174 10.26514
-40.00859 -25.44915 7.16391
-44.19790 -21.87447 9.31177
-47.49809 -14.65595 10.25872
-51.71471 -19.52677 7.16341
-51.35713 -22.10594 7.16312
-53.96752 -22.01580 9.31604
-62.53574 -21.68586 7.16349
-57.10036 -24.29343 7.16437
-62.24176 -26.15027 8.14735
-40.18484 -24.78776 10.26171
-34.23939 -8.39188 8.29769
-53.56016 -11.94013 7.67767
-53.47571 -20.59073 7.16266
-52.03208 -23.73442 7.16730
-63.17248 -22.90657 7.16283
-57.93355 -24.81599 7.16298
-55.30813 -26.08167 7.16186
-39.22199 -23.65537 10.26327
-45.76664 -19.69963 7.16220
-50.69144 -18.68312 7.16178
-54.06832 -17.47108 7.16188
-54.71863 -21.70056 7.16136
-58.81006 -22.04317 9.11925
-63.70087 -24.40303 7.16206
-61.84246 -26.14588 7.70147
-39.60024 -25.25493 10.26181
-46.74431 -22.20501 7.16434
-49.91022 -20.74485 7.16109
-53.17121 -16.54302 10.26278
-51.72128 -22.61956 7.16305
-63.83990 -18.42335 9.26077
-59.87374 -23.51681 10.26438
-60.28707 -25.48195 10.26311
-54.84794 -26.14405 8.34708
-34.27828 -21.52992 8.19523
-48.66954 -16.99529 8.86126
-53.43739 -16.81274 7.47274
-56.18395 -18.45484 7.16292
-63.05756 -18.33246 7.16336
-60.16252 -22.74554 10.26289
-63.85720 -24.75943 7.21698
-58.99262 -26.05545 7.16370
-38.46173 -24.41115 10.26414
-49.30118 -21.76665 7.64902
-52.10805 -18.60288 7.16286
-59.14961 -11.92090 8.71375
-63.84668 -16.87299 8.71809
-55.17012 -23.50721 7.16568
-59.31076 -24.36236 10.26030
-55.59893 -25.32332 7.16342
-45.09754 -26.14848 8.44497
-49.33805 -21.54358 7.38483
-51.59958 -21.75420 7.16354
-59.29036 -12.22987 10.26212
-58.57210 -21.11988 8.05959
-59.49440 -23.70265 7.16231
-60.08279 -25.21303 10.26083
-55.28681 -26.15164 7.98859
-34.24594 -16.34633 9.56928
-49.27993 -16.78025 8.88676
-53.54159 -18.70709 7.16244
-58.19834 -19.24663 7.16352
-54.96654 -23.06742 7.16460
-61.46633 -23.32955 10.26105
-60.24483 -25.60937 7.16361
-46.92524 -26.14871 7.64379
-46.72975 -17.41759 7.16252
-52.22566 -18.28537 7.16356
-62.19902 -14.53173 7.16210
-56.07597 -22.38760 7.16083
-56.48191 -24.12319 7.16460
-55.35512 -24.97263 7.16136
-40.09669 -25.31094 10.26596
-39.33265 -6.57596 9.83031
-53.27711 -19.73662 7.16492
-56.29306 -19.82863 7.16345
-63.83555 -17.33099 9.10521
-62.15932 -22.51151 10.26050
-63.84174 -25.09804 8.50666
-58.46889 -26.15099 7.80566
-44.39193 -21.12449 10.26062
-52.59988 -15.69830 7.16276
-58.39048 -16.36633 10.18401
-57.57589 -20.76356 7.16160
-63.85411 -21.59183 7.30560
-63.13211 -24.23706 10.26157
-56.09366 -25.10345 7.16395
-44.29614 -21.75360 9.66615
-51.36686 -14.18617 10.26343
-56.76190 -19.44865 7.16347
-63.85643 -17.43633 9.49085
-61.51604 -23.46498 7.16263
-61.78165 -25.87853 7.16295
-50.56846 -23.91181 7.16047
-51.45082 -21.53908 7.15884
-55.81761 -20.14164 7.16433
-61.24598 -17.76320 10.26174
-63.84639 -21.49064 7.34691
-62.36112 -24.14269 7.16203
-63.74870 -26.14594 8.09172
-51.68134 -26.00497 7.16462
-47.26812 -18.54478 7.16335
-55.94809 -18.42463 7.16252
-57.57086 -19.34617 7.16228
-61.90257 -20.91101 10.26000
-57.42254 -24.15401 7.16240
-59.97108 -26.04464 7.16223
-45.63079 -22.14119 10.26025
-52.69182 -20.51984 7.16191
-56.35241 -18.37187 7.16187
-58.13826 -19.44488 7.16329
-58.34135 -21.59329 7.82906
-58.84263 -23.33129 7.16375
-63.10487 -24.97411 7.16282
